ply
format ascii 1.0
comment VCGLIB generated
element vertex 794
property float x
property float y
property float z
property float nx
property float ny
property float nz
element face 0
property list uchar int vertex_indices
end_header
-57.14182 355.4864 114.858 0.9846367 1.616331e-06 -0.1692183 
277.231 621.9222 76.8086 -0.1034685 0.1209717 0.9860862 
44.13092 98.22102 98.88649 0.881794 -0.3114243 0.2842856 
128.5119 771.7208 145.0101 0.9580116 0.1208089 0.1698377 
-70.04414 444.8741 68.4205 0.2606836 0.4770986 -0.7635525 
-76.97898 780.8835 123.7144 -0.8175068 0 0.5442992 
-85.12253 705.278 119.2363 -0.1370854 -0.8562471 0.2380054 
42.78537 848.3662 115.7981 0.9799492 0.1342372 0.05340658 
-34.65269 289.0938 51.01898 0.5981783 -0.0004553949 0.7778539 
-403.3343 689.4966 76.02127 0.7869306 0.3686556 -0.4816993 
9.318913 924.1982 168.2815 -0.9977626 0.01807668 -0.01735641 
-30.98505 314.0643 153.8998 -0.5486429 -0.0003929886 0.8325319 
47.38709 119.7737 106.0039 0.8919208 -0.2514749 0.3321137 
-43.0883 791.1907 121.3812 0.2948249 -0.02598659 0.9551091 
48.00496 776.2496 130.2093 0.9254055 0.08381306 0.3682573 
-155.599 550.6574 72.86836 -0.05412266 -0.05209023 -0.9963932 
46.97021 1050.98 259.6852 -0.1898003 0.4600245 -0.6012715 
255.8004 594.7655 77.2249 0.1087765 -0.08470206 -0.9892077 
53.66407 173.408 115.5682 -0.9393511 0.1119386 -0.2985945 
30.93114 439.6287 48.53558 -0.1797568 0.1833794 0.9499301 
-24.79271 1013.319 264.8991 0.3477636 -0.0757276 0.8272993 
-56.72445 642.7463 119.0239 0.9827416 -0.005532256 -0.1770403 
12.86633 20.3542 61.72378 -0.721009 0.4301519 0.5041811 
-149.9025 544.4509 42.24557 -0.8791438 -0.07849713 0.4401017 
-39.16229 118.7148 59.19873 0.7637911 0.1101163 0.613589 
38.17244 78.14149 74.76698 -0.923649 0.2847121 0.1791958 
-67.61203 580.7537 64.8576 -0.05275948 -0.149806 -0.9871889 
-32.35784 780.5856 150.2227 0.6320827 -0.05780488 -0.7548711 
12.1364 836.3878 157.9744 0.2926323 0.06047577 0.9362913 
11.73545 984.7773 119.592 -0.7044662 -0.5697536 0.3728707 
144.389 522.9136 55.42369 -0.06588163 -0.0145971 0.9969985 
-54.45538 399.4283 75.56395 0.9018049 -0.003452376 0.4222623 
-57.80767 162.0776 98.16319 -0.9937255 -0.08568542 0.05489223 
-56.83217 569.1328 117.487 -0.9819602 -0.002057559 0.1890708 
42.9835 570.725 59.8131 0.03668733 0.1908237 -0.9807038 
-16.21459 978.0374 128.2025 0.9543045 -0.2789497 -0.02675007 
39.39566 156.0531 139.4752 -0.8065578 0.1880087 -0.5453625 
-29.45609 337.8405 154.9857 -0.5210458 -0.0007470626 0.8481687 
-39.35406 194.6723 54.67669 0.6800666 0.009752556 0.7207435 
75.90563 821.736 135.7834 -0.8849118 0.181234 -0.4284621 
-236.9777 569.4932 77.86931 -0.06032772 -0.01690381 -0.9972479 
52.97994 746.0012 98.77457 -0.9624815 -0.08517441 0.1788197 
24.73104 40.70473 68.87323 0.8960028 -0.334052 -0.2389905 
21.3444 581.926 160.8685 -0.364485 -0.004332902 -0.9260202 
-27.02971 562.922 157.4063 0.4640174 -0.003745175 -0.8693468 
15.36403 447.2614 41.25829 0.268105 0.01889478 -0.9439198 
112.3852 847.1307 139.9735 0.9886091 0.1451115 -0.002226185 
79.32574 719.8718 151.4205 -0.5907992 0.4253804 0.2546609 
17.86878 582.2106 161.6063 0.3034178 0.00444371 0.9387975 
-49.29298 784.3066 100.6978 -0.9618948 0.108486 -0.1694827 
40.74741 840.0863 122.3686 0.3186582 0.2214757 -0.8136867 
-99.76752 814.692 158.1395 0.09609967 -0.1208119 -0.9735146 
48.05614 105.5155 86.71281 -0.9557626 0.2575674 0.03118017 
-79.98216 1066.829 260.6077 -0.1786864 0.7364413 -0.320852 
-3.071644 876.0875 74.00785 0.08434477 -0.2282799 0.9556711 
-42.04389 732.2471 144.2211 0.7437419 -0.03930827 -0.6485918 
33.85435 871.9816 125.0087 0.06954069 0.637884 0.7651625 
57.47237 414.3524 88.46589 0.9716412 0.002467544 -0.1802238 
-17.93173 1023.208 265.0148 -0.5026462 -0.02288891 -0.7943568 
119.3875 780.059 148.2829 0 1 0 
-110.364 309.8664 145.8512 -0.469658 -0.02083032 0.8076386 
53.22001 742.2565 98.25747 -0.9614926 -0.08222876 0.1856361 
-252.1091 591.378 77.36526 -0.09368826 -0.06686983 -0.9922637 
-286.8471 561.348 73.76052 -0.4461925 -0.7307938 -0.173037 
54.73379 388.0429 75.85403 -0.9090428 -0.004302619 0.4084768 
-430.3653 654.0887 75.86917 -0.9229896 0.03508187 -0.3595587 
-112.1006 823.642 130.8305 -0.8101879 0.1273003 -0.5383295 
-115.9916 788.2145 130.0209 0.8528378 -0.09860159 0.47996 
-86.39151 804.5891 155.2163 -0.5820181 -0.1122865 -0.7831804 
-99.77043 303.9745 140.3584 -0.3388628 0.006020449 -0.8751282 
1.314073 897.8981 181.2096 0.1734189 -0.2508604 0.9050375 
-107.7358 815.8037 155.1279 -0.5293423 0.1214198 0.8172865 
-67.49801 754.9181 141.5413 -0.9831405 -0.04659835 -0.06944335 
-88.74608 726.9491 108.5223 0.3124704 -0.03770075 -0.9333889 
-12.67294 683.6005 162.0942 0.2165847 -0.01175753 -0.9565685 
5.166801 280.3994 38.88577 -0.08996011 0.0003979665 0.9811761 
45.87884 1009.663 263.9701 -0.0798197 0.2132715 -0.9322997 
-40.04443 335.9908 54.73623 -0.6878255 0.003880361 -0.7149478 
-34.8065 326.3758 51.03921 -0.6008907 0.002876083 -0.7758833 
-283.182 594.239 68.42599 -0.0638449 0.04624217 -0.9930175 
64.86289 536.0821 41.42238 -0.9967138 0 -0.08100511 
-49.35477 780.4866 120.0673 -0.9589224 0.09268776 0.1891093 
-259.7965 596.0423 67.43117 0.03122576 -0.09157713 0.9939232 
37.81295 797.723 129.8619 -0.3244408 0.02860912 0.9451331 
-114.791 790.7861 151.3405 0.8144517 -0.1006842 -0.5373733 
154.3654 547.3763 37.50635 0.967274 -0.06077506 0.1773891 
13.28781 336.9611 40.49331 0.2319154 0.005675795 -0.9515708 
43.26806 846.2036 123.1843 -0.3535272 -0.3314301 0.726723 
321.6735 613.9637 71.95627 0.06713575 0.05503725 -0.9912919 
-41.64693 597.6308 61.16083 0.7058268 -0.03334174 0.7052827 
-55.61739 288.5828 78.96492 -0.9142715 -0.0002123218 -0.3877615 
34.71331 258.3367 51.08882 -0.59728 0.001490578 0.7785153 
-334.2079 617.8553 82.68694 -0.1104194 -0.02943806 -0.9912629 
173.4615 571.7774 63.13127 0.008619271 -0.2974721 0.9543012 
235.2722 577.2903 76.84737 -0.07516622 0.04812226 0.9948864 
-75.14679 277.7173 140.5857 -0.1549781 -0.2278069 -0.8224329 
59.19218 353.385 104.2429 0.9907174 -1.903614e-06 0.04873786 
-4.557167 855.4229 168.6299 0.7622501 0.06986745 -0.5915282 
34.36494 1053.448 262.5556 -0.2917303 0.471754 0.501869 
124.9658 729.0583 155.2225 0.8673115 -0.03330275 0.4637122 
50.83269 229.6074 132.2215 -0.8214409 0.02040358 -0.5604129 
41.15975 1031.448 258.6099 0.1468914 -0.02789661 0.9426211 
-6.535104 424.9474 38.89282 -0.114699 0.01592469 -0.9759776 
8.416479 952.6862 168.4254 0.9884255 0.1167196 -0.08282021 
-55.37297 555.0182 125.1855 0.9453189 0.0005191033 -0.3120452 
43.81424 827.0171 99.36952 0.9432813 0.1404675 -0.2479914 
-40.3704 350.8354 147.2345 -0.7004901 -0.0009276794 0.7091384 
58.13697 372.4779 92.02212 -0.9829813 2.167908e-07 0.1837056 
-54.68183 746.5839 124.8019 -0.3040871 0.01320352 -0.9525409 
-102.7561 525.0186 71.46778 -0.04103591 0.002087424 -0.9986588 
-152.4786 553.0685 72.50372 -0.05352876 -0.05642638 -0.9964027 
8.90749 904.3232 159.9669 -0.9778227 0.1184104 -0.1049729 
-59.38013 423.6424 99.09911 0.9953943 -0.0009908772 0.04090103 
105.2771 322.1585 138.1409 -0.1558442 -0.4253226 0.6303311 
20.83267 473.7894 160.3743 -0.3627098 0.001064213 -0.9246682 
-245.1459 552.4698 77.34014 0.07020643 0.212493 -0.9574823 
114.3419 832.7693 141.2728 0.9773502 0.1343616 0.06859245 
54.35096 520.0291 127.8654 0.9166095 -0.003967664 0.3940237 
44.14769 489.9543 143.5877 0.7536322 -0.001462927 0.6438347 
-55.53028 382.4167 123.5378 -0.9403573 -9.71433e-06 0.3178949 
12.62588 806.9301 159.1175 -0.2706271 -0.04894112 -0.9426922 
-128.0921 485.2232 70.98244 0.1133078 0.2654524 -0.9415475 
13.40903 840.7797 157.5241 -0.3232079 -0.06278175 -0.9296825 
111.7256 845.2053 144.7698 -0.9232079 -0.1433798 -0.3338601 
384.1243 628.7186 78.80877 0.4798394 -0.07769022 -0.8307813 
88.70097 780.0591 159.6924 0 -1 0 
-121.6478 595.6382 34.76641 0.9199652 0.3577009 0.03061444 
-45.61753 172.9933 134.7401 0.8090319 0.1400655 -0.5449737 
56.12476 1059.234 262.8315 -0.06412771 0.4709573 0.5824978 
-5.888006 374.8635 38.85495 -0.1037835 0.01105499 -0.9781885 
76.22706 711.1659 136.6164 0.4036863 -0.6832089 0.1019568 
77.8391 780.5429 123.7451 -0.8182028 0 -0.5432001 
99.63582 715.3545 163.7668 -0.00691856 -0.559614 -0.5303382 
130.9256 334.1208 141.8935 -0.5438561 -0.2552696 -0.7612644 
80.07633 810.707 140.8339 0.9842796 -0.1174625 -0.04478872 
-44.91177 102.7348 74.8863 0.9196545 0.2148042 0.2758854 
-88.54314 1034.875 263.2917 0.5696091 0.217605 -0.6870351 
228.8431 537.7693 64.35001 0.2478218 -0.2815109 -0.9120873 
0.7534496 972.4261 171.036 0 -0.799693 0.6004092 
5.633641 85.17941 43.02983 -0.1096387 0.1155308 0.9826592 
-56.64967 1012.644 260.2289 -0.4557264 -0.5461122 -0.4312685 
22.19733 779.3868 157.2132 0.441785 0.04371376 0.8838238 
111.3436 709.9272 119.1965 -0.2596127 -0.7189586 0.2921497 
-244.7331 539.4637 69.57542 0.398596 0.6181003 0.3763577 
-164.5539 533.9476 57.00297 -0.07400561 0.01638504 -0.9962108 
-94.4267 462.2485 69.52084 -0.1958345 -0.3835786 0.8409555 
-44.00206 529.359 143.8492 0.7501342 -0.001769007 -0.6547841 
-43.75015 405.88 143.518 -0.7543371 -0.001691124 0.6512881 
-127.956 316.1206 143.4181 0.700526 0.03251348 -0.08838996 
39.45457 480.7493 47.88099 0.06871057 0.01120758 -0.9968123 
-30.9717 252.1634 48.49291 0.5369542 0.002200405 0.8208245 
-28.48353 263.3143 155.6763 -0.5037399 -0.008816671 0.8577911 
0.8009977 992.4657 197.7273 0 0.806772 -0.5908108 
6.715261 1005.857 265.1701 -0.6684607 -0.04836864 0.7329378 
-15.42111 249.2241 161.2841 -0.271113 -0.02053219 0.9431142 
118.1065 327.636 138.3238 -0.3176141 -0.4524874 0.5560378 
-121.6865 493.6531 71.6572 -0.0497474 -0.1610659 0.9741384 
-46.29703 811.5996 132.73 -0.3193372 -0.05587099 -0.945086 
55.23866 638.3831 126.9659 0.9362249 0.003705499 0.3438449 
133.3921 553.6693 57.91372 0.02518606 0.1043147 -0.9941242 
-42.67309 301.7509 145.2294 -0.7411498 -0.0001834445 0.6697845 
-127.0029 723.177 132.8904 0.9646673 0.04056336 0.1825128 
33.98106 1033.9 258.5581 -0.2673966 0.04426589 -0.8955022 
55.33558 544.2848 13.86307 -0.9831795 0.09715559 -0.0161804 
-51.28781 569.9331 74.51772 -0.8676802 0.01930021 -0.4679267 
-7.387992 1004.096 229.6946 -0.9579783 0.2170391 -0.1796722 
-80.43199 730.7197 154.3458 0.7283781 0.1061637 0.5404912 
-56.43768 604.4526 119.9685 -0.9812217 -0.002580684 0.1928663 
43.57856 438.106 143.9745 -0.7467866 0.003948411 -0.6610172 
-24.49534 566.7779 159.2269 -0.4214612 0.003914862 0.8992311 
-142.3747 530.0505 73.30827 0.04318327 0.001332478 0.9983231 
-415.855 677.1506 97.71724 -0.155439 0.2162507 0.9571306 
-308.5245 599.4694 81.75372 0.06818652 -0.01148689 0.9957992 
2.315312 1022.1 225.2458 0.9911013 0.110075 -0.07456803 
150.0837 526.8438 55.99488 0.06364323 0.01912055 -0.996874 
58.45115 202.8073 106.51 0.9825558 -0.03917646 0.09642812 
227.8107 550.6932 63.11768 0.1546444 -0.1049065 -0.963989 
-43.37347 587.8636 145.2941 0.7362183 -0.004149572 -0.6715583 
57.7338 269.5494 89.86465 0.9868107 6.881367e-06 -0.1436825 
9.801863 36.14421 96.92968 -0.3540193 0.5072945 -0.7716644 
79.36464 780.4664 162.9224 -0.6326669 0.1503025 0.7410664 
-195.8097 514.3705 63.09148 0.3079165 0.4251916 0.7494007 
34.7614 278.7405 151.2744 -0.6053523 0.007891929 -0.7850169 
275.0918 596.7711 78.8427 0.09041888 -0.04815919 -0.9935062 
107.9376 709.1954 110.682 -0.2107344 0.6388621 0.6069343 
266.9268 550.7217 75.90172 -0.3161595 0.6047989 -0.5006901 
-115.1126 553.7548 70.51733 -0.0524821 -0.05052686 -0.9968337 
-119.1503 505.7005 53.43459 -0.08228597 -0.01565755 -0.9930123 
55.0775 182.9422 112.8644 -0.9491914 0.09405728 -0.2939833 
-10.1553 976.2432 145.2008 -0.688698 0.141909 0.6814873 
-303.8336 578.5802 71.45886 -0.2578855 -0.2551101 -0.9272667 
98.86522 1039.268 260.9787 -0.7413992 0.5874323 0.2358987 
-9.865222 803.3892 61.5743 -0.2094092 0.1271734 -0.9485534 
229.4482 590.835 75.2354 0.1089587 -0.0914564 -0.9894779 
45.5839 404.363 61.25923 0.7681199 0.008940324 -0.6264768 
-24.41597 447.322 47.7109 0.1496481 0.1310837 0.963549 
4.840083 1046.716 268.7854 0.8242453 0.1581086 0.3460815 
52.93591 646.2649 131.4904 0.8929604 0.005764874 0.4269632 
417.6573 645.8141 64.58846 -0.1790194 -0.01595531 -0.9719014 
-234.8528 613.0707 74.05367 -0.1034716 -0.08972827 -0.9898574 
42.27277 500.3304 146.5032 0.7211263 -0.00144341 0.6925557 
154.2721 567.2156 31.11909 0.9654844 0.06988935 -0.1850755 
-315.603 596.5665 71.41765 0.1862352 0.09656304 0.9650945 
-138.7544 568.4023 54.69549 -0.857515 0.1102323 -0.1781408 
-42.28604 542.0272 146.6726 0.7207837 -0.002247291 -0.6923821 
68.64191 743.3354 135.4781 0.9796656 0.0009756871 0.1079844 
308.263 622.6158 79.72256 -0.1039421 0.1443588 0.9833646 
250.8628 548.8553 77.05788 0.1093163 -0.2862299 0.9419168 
43.98514 313.7173 139.4337 0.603004 -0.7410501 0.08246335 
46.01223 150.9542 124.7474 0.8938038 -0.1680905 0.4124952 
-102.808 1053.684 259.4046 0.6996564 0.02292069 0.6643898 
-23.46424 372.988 159.241 -0.413531 -0.006863882 0.9089727 
213.9853 594.3001 73.56285 0.1056638 -0.08263661 -0.9907708 
57.81348 594.4797 113.557 -0.9818758 0.001684747 -0.1895012 
-71.04534 835.0566 130.0456 -0.3234668 0.1675963 -0.8767595 
129.0393 759.9445 136.4956 0.977875 0.06816263 -0.08680501 
-43.23854 283.1345 144.3309 -0.7405303 -3.215496e-05 0.6699376 
-47.13297 241.2771 64.15361 0.7976402 0.002269885 0.577275 
39.76485 748.499 71.99694 0.7260478 0.09474569 -0.6721658 
7.302252 91.37947 127.287 -0.2474497 0.5165786 -0.8135982 
-131.3034 561.7716 55.31134 -0.9250622 -0.157438 0.1541968 
-13.56598 69.63013 112.7198 0.3262857 -0.04355735 -0.8041574 
3.450769 367.9136 38.34819 0.0600351 0.009681976 -0.9873529 
38.00781 136.4073 54.69308 -0.6956767 0.06281327 0.7094665 
-252.5134 614.3382 75.7246 0.1031843 0.1019236 0.988493 
93.31104 468.4025 52.92794 -0.1714783 0.1717728 0.9534848 
2.464319 3.409537 65.33996 -0.2333331 0.8070279 0.3221849 
-4.519901 185.1651 160.3996 -0.07810225 -0.1143047 0.9764301 
52.76826 480.0426 74.29853 -0.8886043 -0.01344371 0.430125 
80.01225 804.042 143.5604 0.955589 -0.1117858 -0.1912363 
-154.5664 563.3663 60.46761 -0.003044036 0.2860362 -0.9577318 
-41.93948 314.7242 56.13287 -0.7191713 0.002644472 -0.6930231 
109.6972 840.3075 149.5444 -0.7434437 -0.1397889 -0.6352023 
326.8104 601.4253 72.2755 -0.18746 0.09377234 0.9671196 
24.99914 705.0355 157.9026 0.4279963 0.0199645 0.893994 
419.4906 655.7843 100.2785 -0.08609334 0.04627353 0.9895873 
-33.21188 412.2275 54.72018 0.3780854 0.5296527 0.7068532 
408.927 613.1515 88.9807 -0.8180699 -0.2903504 0.4597391 
-67.64415 1034.279 258.8607 0.2594648 0.02346425 0.9083806 
388.1406 621.1585 84.00301 0.531139 -0.3779887 0.4980353 
46.66434 796.0708 93.89095 -0.9310694 -0.1202265 0.3152735 
9.561638 296.6092 162.5367 0.1670681 -0.01615162 0.9648687 
-54.28567 583.1193 128.5668 0.9148062 -0.00110196 -0.3941051 
76.85938 719.067 133.867 -0.5865954 0.4500334 -0.2003318 
-158.0155 503.0781 58.14199 0.1944271 0.2209594 0.9452633 
-415.171 701.8627 85.3195 -0.1687286 0.8267912 0.3233269 
-68.80936 713.3939 143.0268 -0.9784875 0.05114861 -0.1083649 
-45.15973 335.5353 141.2782 0.7825592 0.000626465 -0.6153611 
-116.1154 711.0979 153.6028 -0.320024 0.6846482 0.2727189 
387.4242 631.2078 79.11893 0.4966557 -0.06754759 -0.8241408 
-94.38658 507.7417 52.37875 0.06194408 -0.02393488 0.9965757 
-70.12696 802.3711 129.829 0.2797329 -0.02251493 0.9594315 
-51.73045 744.4861 123.8376 -0.3048351 0.0151301 -0.9522792 
22.96136 38.25874 85.68456 -0.8244267 0.4514861 -0.3334626 
58.79015 262.5469 106.4083 -0.9831983 1.833953e-05 -0.1825407 
-7.267034 706.3929 162.7017 0.1251421 -0.01425225 -0.9750801 
8.949494 977.211 220.5862 0.9816559 0.09577359 -0.1112207 
-105.7639 710.1259 162.3207 0.1175287 -0.7132247 -0.3776458 
121.0153 498.4095 53.80637 -0.1053129 0.05559671 0.9826319 
-24.43364 322.5336 43.71014 -0.4277989 0.00412323 -0.8970917 
48.21833 808.746 110.5407 0.9899379 0.1155812 0.003265338 
46.97949 1016.419 258.7402 -0.008866061 0.1000899 0.954186 
-5.993975 966.0364 175.2894 -0.9472466 0.248857 -0.1855731 
315.5197 605.8562 70.89762 -0.1094997 -0.01980104 0.9907483 
132.8008 312.7945 137.5946 -0.6533685 0.04371414 0.7311385 
-54.64864 144.9948 87.10909 -0.9614416 -0.1200448 -0.1184346 
-115.5014 563.8776 59.92429 -0.01435399 0.2546907 -0.9654008 
-68.01016 287.7849 140.0472 0.09729135 -0.01023934 -0.9533954 
-44.43262 534.3354 1.836923 0.4957794 -0.02301172 -0.8084561 
-10.48303 325.0428 39.93073 0.1846296 -0.005659235 0.9612871 
-38.09776 591.252 58.4404 0.6467901 -0.03333573 0.7464844 
-43.06294 360.4673 144.6099 -0.74471 -0.001066587 0.6643864 
-68.72878 726.1189 132.2607 0.9612076 -0.03616834 -0.204152 
-270.4232 552.8279 75.52576 -0.3644086 -0.6741143 0.378316 
80.57413 544.0416 55.20731 -0.02835137 -0.1201718 0.9918239 
126.896 567.8395 69.42274 -0.06446585 0.1596739 0.9849319 
51.87427 773.2798 106.6399 -0.9872772 -0.1013379 0.04896782 
0.6850616 389.7831 37.71889 0.01175167 0.01235214 -0.9973893 
14.69608 450.1442 161.5424 0.2564996 -0.002076956 0.9465063 
7.131917 368.0178 163.0513 -0.1244529 0.008789958 -0.9738462 
-139.832 515.3521 45.00101 -0.4427661 -0.3742379 0.8040447 
-55.87536 667.6073 121.3585 0.9750819 -0.0183241 -0.2119945 
-113.4031 826.9849 134.0233 -0.921113 0.129826 -0.3541092 
54.87257 734.1512 111.5177 0.9812508 0.0706267 0.06174752 
2.958107 359.4727 38.26064 0.05142871 0.008752342 -0.9891492 
-22.28235 460.6374 46.81236 -0.1046462 -0.05298926 -0.9838603 
-205.3988 583.0681 65.48492 -0.05246574 -0.3219647 0.9448702 
-6.2317 1018.279 263.1504 0.6924011 0.01268968 0.2776088 
-82.40662 1027.834 260.8308 -0.6738949 -0.6188899 -0.2549344 
-42.21244 413.5113 56.09088 -0.7241257 0.009048805 -0.689366 
26.05259 739.4732 60.7461 -0.4669347 -0.09077461 0.8634985 
116.6509 780.0591 141.2429 0 1 0 
-230.2832 579.0563 76.41563 -0.0796103 -0.05874107 -0.9941242 
118.8564 517.5586 54.07185 -0.06034259 -0.02673422 0.9965513 
280.6155 620.4956 77.42787 -0.1032299 0.1223676 0.9860075 
-59.42677 352.4068 102.5518 0.9931853 8.42934e-06 -0.09003515 
-35.34022 298.2457 150.8069 -0.6214653 -8.516604e-05 0.7780318 
8.876754 454.2686 162.798 0.1540097 -0.001708879 0.9680087 
-31.30118 104.7028 52.72771 0.6585935 0.1128617 0.7303023 
109.9785 300.7838 142.5395 -0.3651889 0.09320341 -0.8429711 
-54.9629 630.0921 127.8884 0.9283233 -0.004608684 -0.3686821 
-105.7727 500.1894 52.48259 0.08310954 0.01688514 0.9927695 
-299.2075 593.5653 69.41927 -0.1450206 -0.02742685 -0.9835797 
126.4233 464.0351 63.50304 -0.5272071 0.8061858 0.094024 
98.37994 733.5595 172.3416 -0.01203395 -0.02777792 0.9968219 
196.3613 576.7416 63.8801 -0.03842265 0.3149132 -0.9476677 
148.4697 562.2161 59.97535 -0.01658067 -0.2855213 0.9580383 
-3.083067 229.0501 38.57697 0.05420365 0.005646951 0.9887515 
-369.9495 654.9026 79.21952 0.168655 0.5412753 -0.4813102 
-388.8639 643.5267 86.31419 -0.2675498 0.03019642 0.9421226 
-8.870005 128.8628 146.955 0.1575201 0.355107 -0.8993245 
110.6361 496.937 71.96919 0.005099531 -0.08455575 0.9879151 
-103.5617 841.1807 153.3236 -0.3830919 0.1404988 0.911758 
-112.871 773.3359 166.3214 0.4943235 -0.1267874 -0.8394654 
-57.63676 504.0403 91.83138 0.9891403 -0.003933323 0.114083 
-42.76621 508.0175 59.42329 0.7294017 -0.02004328 0.6790465 
-234.7305 570.6752 63.94986 -0.06871885 0.03621908 -0.9948624 
-6.871893 288.6258 39.23566 0.1211284 -0.00129132 0.9746212 
-147.0528 532.0093 56.47053 -0.05658001 0.03384405 -0.9964148 
-118.089 559.8173 42.23878 0.8889641 0.0210958 0.4296272 
354.1898 649.4491 80.88007 0.133731 -0.1589339 -0.9777234 
57.44119 299.9355 113.6737 -0.9831944 1.064164e-05 -0.1825621 
5.902633 685.5386 163.4354 -0.1015474 -0.01312924 -0.9797558 
178.5557 496.5941 66.5022 0.494615 -0.8410134 -0.001028938 
38.3489 475.4198 54.79089 -0.6556623 -0.01972017 0.7362676 
70.18742 775.4274 127.5539 0.9201078 -0.1382263 0.3574349 
83.67198 784.551 114.1339 0.5222796 -0.189779 0.8065983 
43.96128 846.7833 129.5625 -0.1026406 0.3762953 0.8473752 
-43.88291 268.6756 59.06593 -0.7500983 -0.0009657767 -0.6488934 
5.238303 93.69276 129.4595 -0.2355953 0.5193307 -0.8172788 
56.30442 244.2666 119.7963 0.9618133 -0.003200737 0.2571892 
119.4509 704.4305 149.8324 -0.2142016 -0.8814411 -0.1301172 
-34.4001 522.1302 53.5075 0.5886757 -0.02463522 0.7858386 
-9.07242 927.5541 174.6135 0.9961292 0.03833428 -0.03607436 
-43.5113 668.4302 67.33944 -0.7399126 0.05297522 -0.6565297 
-97.12128 726.3219 171.8497 -0.02614732 0.03893228 -0.9934255 
412.7683 689.9928 90.73425 -0.630854 0.3985703 0.6331589 
-299.8767 570.9829 73.73442 -0.3844588 -0.5691136 -0.4252129 
32.66753 827.7699 146.3558 -0.7272476 -0.07849781 -0.6801499 
192.6746 506.0507 66.65529 -0.4611008 0.769133 0.1361092 
75.33643 283.3346 143.0624 0.072313 0.09046222 -0.9274353 
-394.8441 638.3433 80.00135 -0.5440783 -0.03834935 -0.8056529 
-380.1863 617.9843 83.65167 -0.474246 -0.3779256 0.5303439 
37.70252 525.4715 149.979 0.6430093 -0.0006398579 0.748457 
-113.3486 791.0813 117.6449 0.6132576 0 0.766389 
-173.5877 583.1051 66.5441 0.00981807 0.2945186 -0.9550726 
35.03261 890.4035 124.5276 -0.9529251 -0.1687555 -0.1744315 
-15.76407 321.2522 41.06073 0.2772857 -0.005084312 0.9419365 
-30.33651 52.96272 78.49359 -0.9287347 -0.355152 0.002444036 
58.5034 532.9893 37.06787 -0.2597711 -0.9504263 -0.0005240301 
59.1517 316.0753 97.45177 0.9862198 2.182537e-05 -0.1556033 
-9.282679 420.7202 162.5889 0.163928 0.003757679 -0.9656588 
121.2018 701.199 134.5084 0.1300215 0.971745 -0.0197831 
97.63 473.5352 70.16798 -0.1205585 0.2659046 -0.9093337 
1.683827 499.9238 40.32593 0.02929486 0.02937035 -0.9932866 
40.96458 1036.649 264.6701 0.1452944 -0.05426352 -0.9346806 
-8.355776 954.0071 180.9517 0.9887044 -0.1097014 0.07610825 
140.5188 545.3256 54.12614 -0.8949172 0.1455229 0.3033611 
-11.52349 578.0447 45.22138 -0.1955311 0.04136464 -0.9597797 
55.70875 251.424 79.02897 -0.9513444 0.002013627 0.2970218 
3.534686 1021.543 239.9156 0.6944694 0.2360781 -0.5290849 
-165.8148 552.76 73.21622 0.06148584 0.06614152 0.9950202 
-83.2963 298.2847 146.351 0.1175596 0.0004877195 -0.9572437 
-73.28957 810.4456 130.5726 -0.287342 0.04129124 -0.9561946 
-46.17055 464.4236 69.42126 0.07144205 0.1722139 -0.914117 
-118.5536 580.1691 38.14317 0.9398263 0.1682611 0.2348167 
83.37473 730.2905 124.2989 0.00154465 -0.9994142 -0.034178 
-43.56952 601.6459 63.86861 0.737731 -0.03203779 0.6628255 
-107.4186 569.8644 61.59 -0.01752931 0.2455375 -0.9677867 
1.61515 41.52764 48.8191 -0.06227158 0.2089629 0.9649516 
54.03257 515.1169 51.03799 0.04589609 0.07618134 -0.9946067 
73.41158 793.615 143.0202 -0.9757693 0 0.128269 
261.4847 613.9657 71.81514 0.04394379 -0.2841288 0.9555557 
71.39575 731.4092 153.6108 -0.9006713 -0.02951349 0.4102465 
-95.83752 316.307 145.5819 0.2366943 -0.1254288 -0.8747504 
-265.9549 583.1967 79.36308 0.0686034 0.01348803 0.9968333 
73.26242 1059.738 263.8414 -0.2468798 -0.1941803 -0.8625631 
78.86147 756.6931 163.5869 -0.659556 0.06040343 0.7292293 
11.16571 935.6255 90.87965 0.4513044 0.2642915 -0.8477771 
56.73314 684.9693 113.6122 -0.9856678 -0.02501512 -0.1529798 
3.265459 258.7003 38.52624 0.0567854 -0.002702656 -0.9880862 
361.3372 635.2916 83.91914 -0.0344312 -0.07444413 -0.9628434 
115.355 780.0591 156.6356 0 -1 0 
-288.0699 614.4129 70.80324 -0.02282555 -0.2456523 0.966176 
45.66035 754.4457 132.5 -0.3180683 -0.01349595 0.9479449 
6.764965 778.196 58.43928 0.1270665 0.1098906 -0.9681671 
392.0348 627.5412 79.96362 -0.6227013 0.1066176 0.7278131 
-136.7871 523.2712 20.23071 -0.1815827 -0.2727278 -0.9353873 
-55.20409 649.0042 126.3605 0.9411259 -0.01100311 -0.3253808 
55.88589 645.2578 123.5504 -0.9617563 -0.01929003 -0.2572918 
244.0234 570.3652 64.28739 -0.07484007 -0.02477234 0.994672 
55.20925 547.8349 126.4789 0.9338635 -0.001567652 0.353642 
27.61588 504.0439 48.87082 -0.05157537 -0.07066491 0.994631 
-135.5372 602.8749 24.99411 -0.132613 0.5090829 -0.8009576 
-32.54984 903.7599 112.2564 -0.9555092 0.2032086 -0.126995 
175.0517 496.4849 64.82687 0.4389851 -0.7154654 -0.2215561 
56.3122 261.1563 119.7549 0.9831981 6.13671e-06 0.1825417 
53.38944 758.0925 106.0888 0.9882408 0.09244744 -0.04837969 
-23.27592 623.0969 49.56932 0.3960179 -0.04720981 0.9146528 
-19.38408 30.99118 64.09707 0.8365707 0.3638316 0.387102 
-46.01897 484.5253 48.52931 -0.06805067 0.0123776 -0.9967998 
-354.6055 653.6578 80.44822 -0.1247198 -0.1670247 -0.9777743 
-71.21771 777.3557 154.1367 -0.8608103 -0.1403006 -0.4565573 
-46.06721 105.3728 77.42285 -0.9276865 -0.2210885 -0.2275613 
-223.724 538.0327 75.98528 -0.09656346 -0.2649824 0.942119 
-59.19815 441.7703 98.36945 0.9921308 -0.001562588 0.04165539 
1.69185 979.4761 154.0084 0.9938701 0.09209855 -0.06086896 
379.7324 655.2144 83.69361 -0.1346983 0.1468166 0.9796532 
-58.06914 181.0179 102.051 0.9887985 0.0610825 -0.07599909 
220.8484 573.2135 63.36539 -0.06212758 -0.062195 0.9949587 
-59.3774 280.9873 146.2909 0.202991 -0.06368507 0.8886342 
187.3613 524.7146 59.87215 0.1624058 -0.1464484 -0.9607803 
-14.80579 654.9135 162.2743 0.2521691 -0.008701595 -0.9492588 
47.04048 654.3339 71.39033 0.794063 0.04044407 -0.5752552 
-21.65171 148.2027 43.14808 0.3909961 0.0245134 0.9198297 
236.237 558.7396 63.57708 -0.131997 0.05497384 0.9782872 
-116.4037 756.0313 114.1095 0.6161194 -0.05733371 0.7600875 
-39.34194 856.1693 98.76566 0.9261611 -0.168367 0.312855 
-55.31041 523.4862 80.42413 -0.9373255 0.01269339 -0.3405932 
2.689956 967.523 153.6554 0.9944051 0.08699059 -0.05990465 
92.86494 557.3303 69.13918 0.05361807 -0.05279467 -0.9969252 
2.253231 1058.004 273.9103 0.6297566 0.2151071 0.6929479 
35.62753 1015.344 264.6362 -0.1559014 -0.1055058 0.888457 
-99.61496 730.2741 126.2349 0.0002112878 -0.9993635 -0.03566125 
-430.7689 656.1129 87.58002 -0.9510804 0.04911666 0.2871065 
-294.4678 595.0173 80.97778 -0.07397706 -0.004763305 -0.9968458 
48.59499 577.8651 70.865 -0.8183903 -0.02717903 0.538152 
55.4026 308.5132 77.39072 0.9061767 9.514598e-05 -0.4123274 
-112.0111 843.3365 140.4447 0.9851614 -0.1422708 -0.02423403 
55.45713 506.8126 80.26695 -0.9399698 -0.01222159 0.3313806 
-418.8586 689.4911 71.37943 -0.4129026 0.3678787 -0.8267802 
6.296855 488.1989 163.5336 -0.1064312 -6.072897e-05 -0.9785009 
50.71197 538.7009 31.83712 0.09853674 0.1967535 0.8968424 
62.33989 532.6211 14.72351 -0.9998959 0.002932549 0.01355272 
7.76507 936.9617 89.97449 0.3239397 0.2666364 -0.8872659 
126.0446 526.3895 23.99363 -0.7027402 -0.2207939 -0.66319 
42.38548 254.4879 145.8125 0.7279593 -0.01072833 0.6852571 
-6.658765 889.8798 164.7615 0.9311241 0.2468118 -0.2280757 
96.05305 313.091 137.2066 0.1386384 0.07095714 -0.9386413 
50.52355 223.9394 132.4859 -0.8120872 0.02483868 -0.5761252 
49.15707 243.8133 67.16012 -0.8360575 0.003372876 0.5206581 
-31.3791 272.7856 143.4396 -0.6878515 0.01265134 -0.02372244 
46.17651 832.1419 123.4941 0.2821363 0.08823822 -0.9244202 
-292.4833 624.2254 72.70706 -0.02601841 -0.2496765 0.9657623 
-72.15687 738.296 156.4429 0.8475827 -0.008122847 0.4950545 
93.75204 792.4303 120.4253 0.2512278 -0.1023306 0.9448617 
6.725161 363.6852 163.1375 0.1173321 -0.009288244 0.9753264 
-107.2383 465.6955 55.24658 0.2323993 0.2887274 0.9284161 
43.3554 330.7832 57.9119 -0.7441941 -0.003453715 0.6641077 
-45.10069 344.7164 60.82684 -0.769796 0.003457819 -0.6181111 
46.62106 762.5145 84.75851 -0.8682939 -0.1029216 0.4575072 
92.86327 842.915 152.7954 -0.4025814 0.1414171 0.8981944 
53.12672 509.6201 50.61021 0.04962216 0.06480286 -0.9950044 
-75.08302 491.1627 71.29014 -0.02842847 0.02151227 -0.9993067 
-47.19657 382.265 138.0417 0.8134905 0.0006022089 -0.5750027 
55.08403 189.8702 78.87653 0.9433812 -0.02352306 -0.3166454 
-74.70258 518.6585 52.48557 0.04513554 -0.06788701 0.9950479 
-4.802853 307.4587 163.5411 0.08496708 0.01583968 -0.982064 
-80.44131 781.5699 159.5477 -0.690146 0 -0.7121561 
-95.03376 815.183 122.0949 -0.156612 -0.1211096 0.9616504 
35.53372 885.3137 105.2178 -0.9345394 -0.1962934 0.2486109 
34.21859 1020.157 264.9466 0.2154781 0.04883076 -0.8903189 
55.50876 469.6859 124.4057 0.9501382 -0.003075281 0.2985401 
-386.8488 635.2511 79.08067 0.4611457 0.0410258 0.8575498 
-46.58921 116.0271 71.22653 0.9082385 0.1561652 0.3835962 
-10.9334 753.0154 161.6268 -0.2002981 0.02696259 0.9594663 
-79.05669 810.8651 139.9712 0.992568 0.1176299 -0.001165412 
65.45871 1050.82 258.8359 -0.1817385 -0.07335656 0.9220513 
-396.2245 646.7963 77.34643 0.9556528 -0.01231388 -0.2752682 
9.444823 917.642 164.4986 -0.9974499 0.02962187 -0.0267363 
-5.329412 351.6 163.4292 0.09427354 0.01114364 -0.9801787 
47.74085 608.9141 139.071 0.8066174 0.002618752 0.5587757 
-54.68379 285.0459 126.1442 0.9100252 -2.799419e-05 -0.40991 
91.56834 786.416 159.6598 -0.3350097 0.09751458 0.9287303 
-31.28941 1039.947 264.3786 0.3025704 0.09693663 0.8702881 
37.12645 221.4448 52.91831 -0.6389856 0.005742477 0.7494024 
-21.22106 337.2879 160.0513 -0.3735252 -0.01154575 0.9216716 
38.76418 604.4396 59.40326 0.6557076 0.03704114 -0.7388866 
-62.17352 531.1332 68.94916 0.04330803 0.01585931 0.9982865 
143.4373 542.2659 72.494 -0.04814745 0.03004283 0.9973495 
-22.19196 585.0106 160.6845 -0.3816549 0.004770217 0.9222409 
-53.75518 304.62 74.47284 -0.8412713 -0.0002055678 -0.5362238 
-10.12281 157.731 155.1567 -0.1741041 -0.207258 0.9406561 
62.41222 529.6572 24.40939 0.9821093 -0.07283248 0.104728 
52.6951 148.1874 109.2539 0.9265612 -0.1605394 0.2855737 
-96.75642 453.3441 58.13999 -0.3338133 -0.4639354 -0.7635916 
34.67054 64.85993 80.01691 -0.9359555 0.3341024 0.0009147115 
-9.215562 179.6871 158.8688 0.1590571 0.1269515 -0.9583887 
146.9092 518.55 26.12292 0.7167064 -0.3191199 -0.586925 
-217.7909 573.9775 63.37781 0.06071798 -0.06588729 0.9949492 
-53.63975 643.2003 130.29 0.9041509 -0.005574007 -0.4114913 
-40.23223 322.5054 147.3326 -0.6997949 -0.000495023 0.7094533 
-4.179061 451.0359 39.01466 0.0723116 -0.01997085 0.9849697 
-79.19355 1062.604 263.7379 0.3222548 -0.2130593 -0.8367381 
92.61498 515.0273 52.97548 -0.05087567 -0.04706381 0.9958479 
436.9258 655.1471 90.03124 0.8927252 0.0426195 0.420757 
44.11392 695.7721 143.5334 0.7464717 0.02886757 0.6427655 
-19.08719 143.1024 149.4931 0.3374481 0.2707044 -0.8919382 
97.98302 722.3927 107.0082 -0.02687128 -0.04431888 -0.9932947 
-6.020617 887.5126 169.2161 0.9156281 0.2910737 -0.2691542 
49.5585 162.9348 69.41219 -0.8632184 0.04173157 0.4697893 
-56.37708 442.5558 83.29703 -0.949018 0.004098636 -0.2682053 
-339.3339 591.9623 79.57125 -0.3483518 -0.640057 0.3227043 
-20.06944 316.6591 41.98495 -0.3527151 0.004229034 -0.9262131 
-51.9734 161.7828 117.4522 -0.9367972 -0.1252451 0.3198267 
87.14227 542.1024 54.93073 -0.02989103 -0.1115873 0.99307 
-21.09733 862.1635 77.34209 0.5331139 -0.2050822 0.7972714 
-12.1897 484.2527 162.201 -0.2151659 0.0002034787 0.9549212 
-358.5486 600.3923 80.10823 0.5532151 0.7792065 -0.05043329 
-92.89624 320.082 145.3069 0.1770397 -0.1903456 -0.8859462 
53.55662 330.4315 73.97636 0.8737143 0.00193644 -0.4751223 
91.54669 1072.671 261.6075 0.3220327 0.7615016 0.04989801 
-23.75122 403.3318 159.0372 0.4189458 0.003508813 -0.9059782 
-271.8548 595.2733 67.97614 -0.03434199 0.0756474 -0.9938189 
31.14845 531.9423 51.76679 0.5319318 0.03084543 -0.8215066 
24.6966 399.3397 43.69434 0.4297784 0.01248686 -0.8954145 
-249.7811 611.6204 71.87202 0.04915819 0.2937543 -0.9526315 
13.25804 107.6717 42.70594 0.2257364 -0.4920641 -0.6777633 
114.2029 714.5411 166.0031 -0.5372583 0.05211927 -0.818337 
-161.9853 527.9039 56.3736 0.08012097 -0.001822711 0.9966055 
55.60669 662.0247 122.695 0.9667151 0.01376833 0.2345537 
-55.31444 1008.815 262.0228 -0.433107 -0.5844814 0.240412 
-20.08625 229.7646 160.1001 0.3527876 0.02775711 -0.9257496 
68.0495 762.6306 138.7465 -0.9907278 0.08067254 -0.01531183 
-156.2187 578.2835 65.00734 0.004687271 -0.2805858 0.959437 
-21.88002 450.7668 42.76711 0.3822651 -0.01822092 0.9203876 
-76.95502 319.6709 144.4472 0.1060618 0.4277736 0.6659183 
57.11654 691.3987 100.2081 -0.9745221 -0.0386816 0.1746629 
60.32557 808.6331 137.3221 -0.3230275 0.05674477 0.9436384 
53.93391 743.5182 102.2186 -0.9769648 -0.08171967 0.1105952 
-51.42767 217.4988 71.01652 0.8710994 0.007994859 0.4597917 
63.24366 536.6415 68.67456 0.04535858 -0.02073778 -0.9981507 
4.245901 711.4185 51.34526 -0.07278581 -0.08668627 0.981852 
114.4706 324.3797 137.9475 0.3111512 0.3099476 -0.6784343 
43.30934 153.0652 129.8964 0.8844267 -0.1874663 0.4240767 
82.73328 320.4401 138.7937 0.2416992 -0.7231557 0.3629066 
238.8775 585.2084 65.32498 0.04534981 0.08150335 -0.9944506 
52.64885 452.6862 73.19548 -0.8878729 -0.01004891 0.4320306 
-132.5901 527.5475 55.56397 0.0552568 -0.03694332 0.9962785 
129.3373 605.3389 32.9004 -0.7152373 0.6033887 -0.1471992 
-117.8663 716.9111 127.9838 0.5228162 -0.5129246 0.2232895 
-406.129 695.6135 87.6771 0.6637512 0.5249887 0.4842305 
-47.27977 430.2087 67.48162 0.3104733 0.5475403 -0.7009193 
-11.99057 404.5794 162.0133 0.2115874 0.0054447 -0.9556246 
2.673248 378.1178 163.9958 -0.0463512 0.008132117 -0.9901518 
-228.7435 540.0172 76.18452 -0.1003615 -0.2715991 0.9415563 
68.07848 522.4354 25.97236 0.06618538 -0.7318561 0.5509007 
5.606116 1019.121 243.4063 0.671832 0.1851445 -0.5773667 
405.8318 623.1823 76.71263 -0.9158993 -0.1843162 -0.3500639 
37.99049 875.8845 122.4844 0.959111 0.1582719 0.1513188 
252.3086 598.2125 67.48251 0.04430523 -0.2898035 0.9537215 
-20.48486 151.9181 42.86423 0.3688616 0.02209007 0.9243348 
17.93296 430.3731 160.7635 -0.3144562 0.003284651 -0.9341169 
-7.571702 97.52323 17.91997 -0.07223919 0.5769221 -0.7169126 
72.76784 1023.097 260.327 -0.6207018 0.5128199 0.3774329 
6.386944 950.3269 151.082 0.3497933 0.09210615 0.9075458 
-59.83166 497.8417 70.16621 0.03091343 -0.01111969 0.9990629 
57.45614 539.6669 114.9733 -0.9822882 0.001905917 -0.1873651 
-56.96431 459.9546 115.9888 0.9832035 0.00123917 -0.1825082 
-124.0117 568.1663 49.00009 0.5758612 0.07107885 0.812067 
38.60201 879.2752 116.7264 -0.9810024 -0.1727177 -0.02190839 
18.7336 491.4341 160.9173 -0.3246633 0.0001229231 -0.9329071 
76.54089 758.5219 161.5766 0.7325913 -0.06722927 -0.6680037 
-16.28347 127.142 42.47645 0.3147862 0.04307455 0.9350779 
-22.56215 419.6778 42.30974 0.3953771 -0.01387607 0.9174889 
-95.02441 489.6022 52.04171 -0.1033555 -0.05184317 -0.9837439 
-11.61617 100.7527 3.963538 0.9657588 0.02712702 0.0996889 
-38.94118 743.4483 130.3448 -0.314106 0.01900856 -0.9491376 
57.09892 619.3424 92.5732 -0.952215 -0.01634764 0.2821139 
-126.7511 783.2741 134.6272 -0.9509753 0.1890407 -0.1498728 
-109.846 787.3909 163.4773 0.4771183 0 -0.8624228 
-57.27433 662.8787 114.6443 -0.9822131 0.01897238 0.1866744 
-37.75921 422.0739 50.63715 0.2573207 0.3196123 0.9056744 
-29.34233 211.8692 154.0804 -0.5049565 -0.04904424 0.8403443 
104.5673 781.8763 112.8646 -0.2326294 0 0.9512973 
67.45896 547.4028 26.78802 0.02410682 -0.6950792 -0.598597 
-1.716544 899.0011 79.29788 0.07669359 -0.2444986 0.9515299 
63.87979 440.946 51.72322 -0.2259012 0.267051 0.9295324 
203.8458 524.64 74.81728 0.1115876 -0.297282 0.9345819 
56.91495 477.9995 48.92928 -0.09018899 0.0284009 0.9900658 
-55.38293 553.9678 56.77664 0.02101157 -0.1569852 0.9864967 
-107.9027 323.4724 140.953 0.3469492 -0.2950155 0.6782055 
-36.54124 766.712 129.808 -0.3257337 0.01212425 -0.9453741 
65.03183 455.323 68.98202 -0.1725804 0.3365408 -0.8369074 
-30.1806 517.8871 50.39545 -0.5182875 0.02520243 -0.8348754 
23.20947 944.7 111.6774 -0.9259572 -0.2522611 0.2552549 
192.0199 564.3634 61.09542 -0.05054415 -0.07529929 0.995127 
59.44292 242.1 102.8922 -0.9923503 0.002190205 -0.08324239 
-131.9548 508.7394 26.34159 0.231465 -0.5640486 -0.7206472 
58.89337 438.8866 51.27296 -0.221781 0.258316 0.9310882 
355.049 628.5181 75.18577 0.1055247 0.05232742 -0.9890385 
-27.84784 1041.859 264.234 -0.362143 -0.1199566 -0.8459738 
-94.07043 301.6443 146.0613 -0.2593321 -0.02363895 0.8945459 
-20.587 765.2275 159.3099 -0.3928906 0.0351553 0.9174857 
3.928428 90.12521 130.1772 0.7514029 -0.3511458 0.5464621 
-34.82675 873.0573 96.10676 0.876281 -0.196902 0.4142354 
-340.1808 636.3396 75.26807 0.02009811 0.1952908 -0.9199396 
1.693818 312.4937 38.08633 -0.02933121 -0.003482689 0.9937761 
5.778075 821.6219 63.48677 -0.1211741 -0.1546603 0.962392 
46.6385 473.3682 139.5461 -0.7932338 0.005165396 -0.6011051 
-7.431546 436.8115 162.9978 -0.1313524 -0.002256008 0.9725201 
93.03057 726.989 170.8351 -0.1995435 -0.0376571 0.9569745 
-44.61349 607.0383 143.4913 -0.7520661 0.003102751 0.6484752 
-108.2143 313.6395 140.4476 0.4328542 -0.04227472 0.8334505 
-95.80196 786.264 166.5143 0.08346911 0 0.9825241 
115.3414 755.2565 166.0203 0.5525532 0.05999561 0.806249 
-55.23258 214.3485 124.2138 -0.9331025 -0.03761433 0.3513271 
111.1622 472.7222 54.82972 0.2019374 -0.2323375 -0.9413044 
49.57676 758.7173 88.52901 -0.9167251 -0.1002152 0.385356 
74.73007 774.8842 158.1613 0.7800738 -0.1281734 -0.5824705 
7.442585 821.3014 159.5939 0.1768765 0.05253549 0.9613446 
-234.1645 557.817 77.72343 0.007209999 -0.06695312 0.9875547 
34.62764 895.4833 121.3243 -0.9661587 -0.1793506 -0.09333 
-4.42774 1054.898 263.9278 -0.8050982 0.3408568 -0.03498036 
-3.95411 40.37204 49.5434 -0.1557211 -0.2187822 -0.9432206 
412.296 633.3379 67.19022 -0.4946709 -0.09563188 -0.8582593 
27.21269 1039.451 264.3557 -0.3654241 0.09520659 0.8443455 
-150.3827 579.4348 32.59991 -0.9623379 0.162923 -0.1150341 
-50.75312 263.238 140.4165 0.2878674 -0.2347054 -0.7265816 
11.66356 1013.394 258.397 0.6046671 0.007081862 0.7594827 
-30.84627 285.1123 153.9982 -0.5467197 -0.00278389 0.8335614 
136.3718 578.605 17.82951 -0.04414637 0.1662039 -0.9809813 
12.61587 937.816 148.9508 0.5427453 0.1001904 0.8121366 
37.11101 799.4492 77.5171 -0.7527027 -0.126163 0.6295663 
18.32529 113.3027 43.39204 -0.3621443 0.1350817 0.8782843 
-46.01924 683.3306 140.4508 -0.7752635 0.0143355 0.5984118 
-26.79297 435.7826 48.5386 0.1893063 0.1999124 0.9456446 
356.6114 642.1335 82.64166 0.1533355 -0.1379929 -0.9781871 
-395.7427 641.5527 82.12558 0.9948373 -0.04745803 -0.01482463 
-7.537747 951.1066 223.9042 0.9565522 0.1832548 -0.1838854 
35.91021 436.543 150.4855 -0.6190277 0.003235573 -0.7628235 
-8.285551 935.5743 151.6157 -0.3572315 0.08119299 0.9121423 
-53.40216 640.0934 80.06551 -0.899859 0.02587099 -0.4177193 
-23.47497 426.5326 42.82622 -0.4107649 0.01434248 -0.9086925 
-21.22688 761.9292 60.17611 0.4018639 -0.1001921 0.9065076 
-56.30467 151.1118 93.70785 0.9807555 0.1149767 0.003499478 
-175.2696 529.8476 75.38197 0.01724939 -0.05945617 0.9874831 
-52.09766 355.3767 71.89002 -0.8653362 0.001342808 -0.4936689 
139.1533 472.0995 64.48187 0.5337777 -0.8230917 0.003802918 
-14.18881 732.3088 55.4166 -0.2595314 0.09239832 -0.9436084 
8.085472 346.9466 162.8493 -0.1411717 0.01094019 -0.9703326 
-48.70541 113.8373 96.87383 -0.9337819 -0.2449907 0.172693 
6.795007 941.8024 225.0176 -0.9730639 0.1445404 -0.141618 
78.79468 792.3193 142.8932 0.9644614 -0.1020673 -0.1521208 
5.717394 846.8777 165.3676 -0.8954273 0.0002193027 -0.3146209 
130.3398 519.6279 54.64641 -0.06326446 -0.02037911 0.9967802 
-47.18884 799.3826 133.368 -0.3247006 -0.03336247 -0.9446946 
26.85501 59.2054 97.25668 -0.7344764 0.3822459 -0.5184426 
-17.94991 641.0123 161.8571 -0.3059123 0.007495656 0.9384127 
-78.59054 789.0494 132.2293 0.9222408 0.09918046 -0.3667358 
43.92761 716.8652 142.482 0.7550555 0.04052415 0.6264555 
-76.76743 724.743 148.4508 -0.7195618 -0.2817047 -0.2718366 
14.20361 977.4044 115.7412 0.8017586 0.4466891 -0.3434207 
-39.16045 718.5822 67.02208 -0.6835535 0.08421423 -0.7191392 
22.64927 1037.054 264.4252 0.4297217 -0.07929657 -0.8181027 
-120.646 539.4008 71.68542 -0.04670615 -0.01792779 -0.997908 
103.6704 701.2295 163.3484 -0.02151148 -0.9712924 -0.1276467 
-91.15739 782.6489 113.0551 0.2696517 0 -0.9435449 
-251.8368 554.9662 77.59313 0.07633188 0.2233285 -0.9562888 
49.48854 1007.203 260.2861 0.3862493 -0.5930799 -0.4198636 
-99.1215 555.4345 57.70397 0.02237614 -0.1301637 0.990469 
8.717142 986.0295 117.4492 0.5120872 0.6729807 -0.4856517 
-205.4041 568.7175 75.09563 -0.07252982 -0.06370115 -0.9944109 
57.26863 664.3101 97.56352 0.9591743 0.04198775 -0.2611822 
-111.4282 497.6057 53.14354 0.09838496 0.04346757 0.9858276 
-7.515331 971.1183 247.6408 -0.9532324 -0.1658751 0.1624362 
47.23712 614.0187 69.87506 0.7955231 0.03205325 -0.5734435 
-22.77369 287.0729 42.6186 -0.4003483 0.001129223 -0.9162414 
-59.93677 543.5517 25.94769 0.9438304 0.2051598 0.2486318 
-42.77723 122.1156 64.05125 0.8204573 0.1196031 0.5248799 
-337.1205 609.4705 73.39529 -0.1748996 -0.05871424 -0.9765034 
50.63988 549.2921 24.0174 0.09773912 0.8102765 0.4344057 
-88.12771 783.2222 121.2628 0.457509 0.09471114 -0.8683494 
-147.7701 544.8083 57.75531 -0.0406762 0.06693115 -0.9953907 
46.06112 488.5114 140.6501 -0.785154 0.002165544 -0.600484 
-352.4445 616.8873 83.80518 -0.1096869 -0.04684556 0.9280227 
109.4857 292.6103 142.1183 -0.4128924 0.1752898 -0.8301942 
-7.31576 947.5566 222.2537 -0.9667795 -0.1603059 0.1572186 
43.06789 303.4036 144.7282 -0.7456446 0.001933632 -0.663668 
-17.91911 986.7946 260.1337 -0.2547568 0.6463457 0.3807672 
359.8731 637.2239 76.25531 0.05432599 0.1020019 -0.9898046 
71.06159 1025.372 263.7333 -0.3685481 0.18539 -0.8526533 
70.27288 776.9316 151.3859 0.9176763 -0.1399272 -0.3688746 
294.793 601.8361 80.22906 0.08736694 -0.03061968 -0.9946687 
-8.360689 293.9303 39.54154 0.147313 -0.001986097 0.9691304 
151.4671 532.5831 56.58359 0.05715734 0.03341418 -0.9964572 
69.5442 1047.727 258.879 0.2482257 0.0485495 -0.901539 
50.99998 167.5514 121.4583 0.9151815 -0.1382603 0.3720624 
16.3586 746.928 160.557 -0.3068681 -0.02844268 -0.9378927 
-50.8195 776.8583 114.0065 -0.9777952 0.09549362 0.08430924 
-308.251 604.8083 81.40326 0.08336291 0.01369283 0.9958208 
-76.26316 745.3871 115.7651 0.7192914 0.01622817 -0.6915643 
208.7233 585.2772 66.19104 -0.05447379 0.3228274 -0.9445055 
-101.6009 297.3081 145.4361 0.3856108 0.1146174 -0.8358196 
-78.44319 541.8144 54.77636 -0.02972086 0.1155675 -0.9924798 
-197.5997 549.3638 60.12967 -0.08294442 0.01552175 -0.995744 
-51.58826 597.575 75.85527 0.8718749 -0.02211554 0.4614465 
264.3315 617.617 76.19343 0.1033069 -0.1101583 -0.9874526 
-20.51591 281.036 42.15074 -0.3608732 0.000767199 -0.9244565 
243.0091 597.5109 67.66275 -0.05090017 0.3019715 -0.9503429 
-21.69824 828.9078 70.20769 0.4903019 -0.1602265 0.8370427 
-39.9153 681.7041 64.32815 0.6811531 -0.06358476 0.7222145 
-54.97017 134.9641 94.80431 -0.9839064 -0.1679058 0.05372882 
-16.40711 1048.091 260.4617 0.5692919 0.6698514 -0.2422405 
-57.77678 586.7081 63.43813 0.05237801 0.1464093 0.9877221 
46.8223 731.4079 137.0892 -0.830204 -0.05372268 -0.5156019 
-50.77311 781.4725 111.6045 -0.9854227 0.1002778 0.03838527 
-353.8152 633.9365 83.45537 -0.1336922 -0.08955245 -0.984468 
85.85547 708.5361 119.4064 -0.1721434 0.7602286 -0.3125655 
-18.69334 753.1389 160.0561 0.3475993 -0.02976492 -0.9297983 
-8.036631 963.4946 181.5984 0.9797615 -0.1590137 0.117283 
14.34983 645.5749 48.36076 -0.2428225 -0.05387192 0.9497589 
41.39645 536.3456 53.1477 0.03107403 0.1307292 -0.9901855 
-22.84138 282.9879 159.6833 0.4016092 0.01643155 -0.9155171 
-9.754506 111.3834 17.16053 0.4227994 -0.6208962 -0.6301104 
-30.18048 648.1449 155.7688 0.5121441 -0.007591985 -0.8374494 
-189.8278 564.7102 61.11887 0.04976301 -0.0766774 0.9951044 
389.744 665.5449 81.50497 0.245539 -0.7229928 0.2507541 
-90.52412 740.0367 170.8436 -0.2497634 -0.002696356 -0.9471421 
-36.41966 886.5684 112.0848 0.96426 -0.1874435 0.09630919 
147.5573 586.3612 45.37847 0.6743427 0.2166017 0.698197 
289.679 628.3267 74.3332 0.03067265 -0.2564819 0.963824 
-57.0711 239.1749 115.2394 0.9700992 0.003324855 -0.186475 
107.0026 507.5912 72.2997 0.03454738 0.01731277 -0.9990848 
-0.2014659 117.1298 39.49381 0.004015348 0.06192317 0.9976752 
103.0384 839.7329 126.1075 -0.3017374 -0.1392383 0.9301527 
120.9453 719.1696 117.9712 0.7586361 -0.04546374 -0.6359897 
-30.87101 756.327 152.7146 0.5721568 -0.04287194 -0.7968509 
10.85585 303.6493 162.2625 -0.1897303 0.01528295 -0.9601495 
-6.579504 314.0565 39.12291 0.115974 -0.004170395 0.9756814 
-76.99348 741.697 115.1973 0.696605 0.003041546 -0.7076634 
38.05785 833.8202 121.506 0.2828319 0.108726 -0.9027951 
109.5417 780.059 116.8211 0 -1 0 
-18.48072 605.2524 47.64756 -0.313542 0.04490593 -0.9359885 
-1.705812 20.49213 54.73226 -0.13474 -0.3745761 -0.8908666 
164.4484 524.8405 56.54556 0.09421261 -0.02399186 -0.9914663 
114.9784 780.059 152.877 0 -1 0 
-64.28301 430.1829 66.78279 0.3940611 0.6699651 -0.5663458 
6.644961 462.833 163.3185 0.1142376 -0.001218295 0.9764639 
-131.2036 557.8163 44.91129 -0.746445 -0.4886367 0.2792852 
103.3674 775.3344 108.7268 0.1545728 0.1294917 -0.958887 
22.55721 53.3671 98.61771 -0.6508685 0.406149 -0.6155288 
21.88101 430.611 159.9272 0.3838037 -0.003372367 0.9196122 
-83.30984 838.1726 141.7395 0.9627714 0.1383427 0.1393294 
-47.17961 107.776 80.20594 -0.9365306 -0.2266774 -0.1738604 
14.3116 723.5627 54.53657 -0.2453003 -0.0876765 0.9476582 
-20.21658 545.6013 160.8654 0.3506701 -0.003006627 -0.9278461 
-58.68333 316.7791 95.37063 0.9935197 1.726403e-06 0.09182312 
-0.8026401 1046.745 244.7626 -0.9923326 0.1051085 -0.06501932 
-59.2453 389.9285 103.5292 0.9889716 -0.0003623074 -0.1192479 
-391.0833 661.5391 80.92809 -0.09139676 -0.4019436 0.6565346 
-50.56866 362.3885 132.6834 0.8651904 3.850765e-06 -0.4969403 
108.5417 570.9944 61.91615 -0.02065107 -0.2456221 0.9678442 
-55.90755 262.102 121.5058 0.9742327 -1.601126e-05 -0.2139434 
19.21796 570.4069 161.2547 -0.327903 -0.003815545 -0.9334881 
-26.33207 61.0654 59.16756 -0.7628495 -0.244241 -0.5678999 
-351.0778 599.0676 80.62585 0.3842622 0.5952291 -0.3479458 
150.1816 566.2949 22.45322 0.7357396 0.06128667 -0.6606988 
54.61137 388.1107 126.3855 0.9352477 -5.471197e-05 0.3447996 
-53.55545 794.4338 124.6246 0.2871967 -0.0231687 0.9574937 
-7.032918 81.93381 43.6921 0.1352016 0.1345962 0.9778952 
50.60504 275.0994 143.4797 -0.4931301 -0.05822062 0.778754 
-89.55547 526.5403 70.66745 0.04160106 0.003361277 0.9985487 
58.84798 381.2643 106.0969 0.9831994 -9.826927e-07 0.1825351 
91.41541 729.546 146.4438 -1.822029e-05 -0.9993605 -0.03575063 
295.6759 585.8105 80.47901 0.005051685 0.0896038 -0.9867938 
139.5298 503.4819 36.45504 0.2605172 -0.8391393 0.2063196 
-58.01626 324.2118 91.80112 -0.9884887 0 -0.1366426 
-57.71244 500.3193 112.2255 0.982446 0.001726208 -0.1865256 
175.2332 587.8781 68.81998 0.08868763 -0.1419353 -0.98548 
59.3759 295.7841 98.6516 -0.9963903 1.411231e-06 0.01889054 
-91.5377 486.7205 71.00458 0.02446717 0.1126023 -0.9830701 
-51.66601 770.912 104.7818 -0.9804997 0.09952985 -0.08269541 
-274.6279 555.6793 76.25126 -0.3382101 -0.6361872 0.4457127 
106.4283 520.1049 71.76083 -0.03920615 -0.006711052 0.9987848 
47.88854 248.1739 137.0681 -0.813538 0.008030424 -0.5494718 
-52.72895 141.6637 78.45623 -0.9360068 -0.1063153 -0.2855142 
-297.418 587.7866 80.67161 -0.007279987 0.08837348 -0.986872 
-43.56063 92.60833 80.27031 -0.9304386 -0.291147 -0.1278992 
-41.56496 546.4518 147.3406 0.7084494 -0.002455678 -0.7024297 
-97.34848 714.5805 107.4316 -0.01887081 0.05496994 0.9945758 
-13.41995 59.03756 48.67295 -0.4061147 -0.1718232 -0.890892 
6.252112 940.2538 90.47139 0.2686755 0.2725069 -0.8978719 
-4.521496 393.0234 163.6009 0.08008419 0.00675029 -0.9832234 
73.48068 787.7368 135.2242 -0.9733747 0 -0.140955 
22.02924 119.6051 138.9292 0.4782602 -0.4019471 0.7709118 
-85.58163 780.4486 167.7715 0.4045583 0.1481609 0.898084 
9.08565 916.9161 172.7122 0.9823065 -0.1126147 0.09955867 
-59.29301 577.7726 102.8448 0.9958292 -0.003200782 0.07784264 
-19.92257 150.205 151.0563 0.3492569 0.2385609 -0.8972434 
77.92268 712.2593 149.373 -0.4212318 0.6498716 0.1719562 
-89.51025 725.9044 161.9695 -0.3195457 -0.2491135 -0.7315873 
75.89229 847.5901 138.7636 -0.0319078 -0.6121395 -0.76762 
-94.62955 1041.561 263.5431 0.6130992 0.1478347 -0.7308341 
