ply
format ascii 1.0
element vertex 734
property float x
property float y
property float z
end_header
-0.301277995109558105 -0.111428998410701752 0.13765600323677063
-0.30433499813079834 -0.113967999815940857 0.138319000601768494
-0.30690300464630127 -0.116512000560760498 0.138876006007194519
-0.309197992086410522 -0.119055002927780151 0.13937300443649292
-0.311280995607376099 -0.12159699946641922 0.139825001358985901
-0.313026010990142822 -0.124145001173019409 0.140202999114990234
-0.31461799144744873 -0.126691997051239014 0.140547007322311401
-0.316038012504577637 -0.129241004586219788 0.140854001045227051
-0.317232996225357056 -0.1317950040102005 0.141112998127937317
-0.31835898756980896 -0.134347006678581238 0.141356006264686584
-0.319220006465911865 -0.136908993124961853 0.141542002558708191
-0.320037990808486938 -0.139469996094703674 0.141718998551368713
-0.320641994476318359 -0.14203999936580658 0.14184899628162384
-0.32117500901222229 -0.14461199939250946 0.141963005065917969
-0.321527004241943359 -0.147192999720573425 0.142039000988006592
-0.321842998266220093 -0.149774998426437378 0.142105996608734131
-0.321970999240875244 -0.152368992567062378 0.142132997512817383
-0.321974992752075195 -0.154971003532409668 0.142131999135017395
-0.321853011846542358 -0.157582998275756836 0.142104998230934143
-0.321541011333465576 -0.160209000110626221 0.142036005854606628
-0.321182012557983398 -0.162841007113456726 0.14195600152015686
-0.320634990930557251 -0.165490001440048218 0.141836002469062805
-0.320010989904403687 -0.168146997690200806 0.14169900119304657
-0.319141000509262085 -0.170827999711036682 0.141508996486663818
-0.318199008703231812 -0.173519998788833618 0.141303002834320068
-0.316998004913330078 -0.176238998770713806 0.141040995717048645
-0.31563800573348999 -0.178977996110916138 0.140744000673294067
-0.314099997282028198 -0.18174000084400177 0.140408992767333984
-0.31221500039100647 -0.184542000293731689 0.139998003840446472
-0.31008601188659668 -0.187377005815505981 0.13953399658203125
-0.307639002799987793 -0.190254002809524536 0.139000996947288513
-0.304701000452041626 -0.193193003535270691 0.138362005352973938
-0.301108986139297485 -0.196214005351066589 0.137580007314682007
-0.296629995107650757 -0.199346005916595459 0.136604994535446167
-0.29015699028968811 -0.202719002962112427 0.135197997093200684
-0.00496200006455183029 -0.257319003343582153 0.0732119977474212646
-0.0140629997476935387 -0.259469985961914062 0.0751880034804344177
-0.0203019995242357254 -0.261952996253967285 0.0765430033206939697
-0.0252039991319179535 -0.264584004878997803 0.0776060000061988831
-0.0292380005121231079 -0.267311006784439087 0.0784820020198822021
-0.0326600000262260437 -0.270103991031646729 0.0792239978909492493
-0.0356249995529651642 -0.272944986820220947 0.0798669978976249695
-0.0382310003042221069 -0.275822997093200684 0.0804309993982315063
-0.0405450016260147095 -0.278732001781463623 0.0809329971671104431
-0.0425599999725818634 -0.281673014163970947 0.0813689976930618286
-0.0442750006914138794 -0.284651011228561401 0.0817399993538856506
-0.0458070002496242523 -0.287647992372512817 0.0820719972252845764
-0.0471410006284713745 -0.290668994188308716 0.082359999418258667
-0.0481990016996860504 -0.29372599720954895 0.0825890004634857178
-0.0491189993917942047 -0.296801000833511353 0.0827869996428489685
-0.0498480014503002167 -0.299901008605957031 0.0829439982771873474
-0.0503370016813278198 -0.30303800106048584 0.0830489993095397949
-0.0507399998605251312 -0.306185990571975708 0.0831350013613700867
-0.0508939996361732483 -0.309374004602432251 0.0831670016050338745
-0.0508470013737678528 -0.312595009803771973 0.0831549987196922302
-0.0505929999053478241 -0.315851986408233643 0.0830980017781257629
-0.0501420013606548309 -0.319144010543823242 0.0829989984631538391
-0.0494659990072250366 -0.322477996349334717 0.0828510001301765442
-0.0485950000584125519 -0.325848996639251709 0.0826599970459938049
-0.0474469996988773346 -0.329273998737335205 0.082409001886844635
-0.0459569990634918213 -0.33276599645614624 0.0820830017328262329
-0.0441530011594295502 -0.336322993040084839 0.0816899985074996948
-0.0419569984078407288 -0.339962005615234375 0.0812110006809234619
-0.0392489992082118988 -0.343706995248794556 0.0806209966540336609
-0.035838000476360321 -0.347597986459732056 0.079878002405166626
-0.0313920006155967712 -0.351705014705657959 0.0789100006222724915
-0.0252000000327825546 -0.356173008680343628 0.0775630027055740356
-0.010115000419318676 -0.362428009510040283 0.0742829963564872742
0.120779000222682953 -0.391916006803512573 0.0458320006728172302
0.120771996676921844 -0.395514011383056641 0.0458320006728172302
0.120764002203941345 -0.399112999439239502 0.0458320006728172302
0.120756000280380249 -0.402711004018783569 0.0458320006728172302
0.120747998356819153 -0.406309008598327637 0.0458320006728172302
0.120741002261638641 -0.409907996654510498 0.0458320006728172302
0.120733000338077545 -0.413506001234054565 0.0458320006728172302
0.120724998414516449 -0.417104005813598633 0.0458320006728172302
0.120718002319335938 -0.420702993869781494 0.0458320006728172302
0.120710000395774841 -0.424300998449325562 0.0458320006728172302
0.120701998472213745 -0.427899003028869629 0.0458320006728172302
0.120693996548652649 -0.43149799108505249 0.0458320006728172302
0.12068600207567215 -0.435095995664596558 0.0458320006728172302
0.120678998529911041 -0.438694000244140625 0.0458320006728172302
0.120670996606349945 -0.442292988300323486 0.0458320006728172302
0.120663002133369446 -0.445890992879867554 0.0458320006728172302
0.12065500020980835 -0.449488997459411621 0.0458320006728172302
0.120647996664047241 -0.453087985515594482 0.0458320006728172302
0.120640002191066742 -0.45668599009513855 0.0458320006728172302
0.120632000267505646 -0.460283994674682617 0.0458320006728172302
0.120624996721744537 -0.463883012533187866 0.0458320006728172302
0.135434001684188843 0.472166001796722412 0.0458320006728172302
0.135425999760627747 0.468540012836456299 0.0458320006728172302
0.13541799783706665 0.464915007352828979 0.0458320006728172302
0.135409995913505554 0.461288988590240479 0.0458320006728172302
0.135401993989944458 0.457664012908935547 0.0458320006728172302
0.135395005345344543 0.454037994146347046 0.0458320006728172302
0.135387003421783447 0.450412988662719727 0.0458320006728172302
0.135379001498222351 0.446786999702453613 0.0458320006728172302
0.135370999574661255 0.443161994218826294 0.0458320006728172302
0.135363996028900146 0.439536005258560181 0.045830998569726944
0.135354995727539062 0.43590998649597168 0.0458320006728172302
0.135348007082939148 0.432285010814666748 0.0458320006728172302
0.135340005159378052 0.428658992052078247 0.0458320006728172302
0.135332003235816956 0.425033986568450928 0.0458320006728172302
0.135324001312255859 0.421407997608184814 0.0458320006728172302
0.135316997766494751 0.417782992124557495 0.0458320006728172302
-0.0226240009069442749 0.363359004259109497 0.0798470005393028259
-0.0313259996473789215 0.357510000467300415 0.0817200019955635071
-0.0364269986748695374 0.352759987115859985 0.0828170031309127808
-0.0400779992341995239 0.348455995321273804 0.0836019963026046753
-0.0428379997611045837 0.344426006078720093 0.0841950029134750366
-0.0449820011854171753 0.340586006641387939 0.0846560001373291016
-0.0466790013015270233 0.336883991956710815 0.0850199982523918152
-0.0480300001800060272 0.333285987377166748 0.0853089988231658936
-0.0491029992699623108 0.329773008823394775 0.0855389982461929321
-0.0499109998345375061 0.326337993144989014 0.0857110023498535156
-0.050400998443365097 0.322995007038116455 0.0858149975538253784
-0.0507850013673305511 0.319682985544204712 0.0858969986438751221
-0.0509039983153343201 0.31644400954246521 0.0859209969639778137
-0.0508229993283748627 0.313259989023208618 0.085901997983455658
-0.0505199991166591644 0.310135006904602051 0.0858350023627281189
-0.0500979982316493988 0.307040005922317505 0.0857430025935173035
-0.0494589991867542267 0.304001003503799438 0.0856039971113204956
-0.0487059988081455231 0.300987988710403442 0.0854400023818016052
-0.0477150008082389832 0.298032999038696289 0.0852250009775161743
-0.0465649999678134918 0.295114010572433472 0.08497600257396698
-0.0452880002558231354 0.2922230064868927 0.084698997437953949
-0.0437170006334781647 0.289398998022079468 0.084358997642993927
-0.0419990010559558868 0.286605000495910645 0.0839880034327507019
-0.040109001100063324 0.283845990896224976 0.0835789963603019714
-0.0378869995474815369 0.28115999698638916 0.0830990001559257507
-0.0354459993541240692 0.278517007827758789 0.0825719982385635376
-0.297879010438919067 0.204240992665290833 0.139100000262260437
-0.30298200249671936 0.200408995151519775 0.140198007225990295
-0.306735992431640625 0.196907997131347656 0.141004994511604309
-0.309689998626708984 0.193606004118919373 0.141639992594718933
-0.312117993831634521 0.190435007214546204 0.14216199517250061
-0.314173996448516846 0.187356993556022644 0.14260399341583252
-0.315834999084472656 0.184376001358032227 0.142959997057914734
-0.317232012748718262 0.181459993124008179 0.143260002136230469
-0.318468987941741943 0.178583994507789612 0.143525004386901855
-0.319409996271133423 0.175777003169059753 0.143727004528045654
-0.320221006870269775 0.173002004623413086 0.143901005387306213
-0.320865005254745483 0.17026500403881073 0.144038006663322449
-0.321321010589599609 0.167569994926452637 0.144134998321533203
-0.321685999631881714 0.164895996451377869 0.144211992621421814
-0.321920007467269897 0.16224999725818634 0.144262000918388367
-0.321309000253677368 0.15977400541305542 0.144128993153572083
-0.32187199592590332 0.157063007354736328 0.144249007105827332
-0.321738004684448242 0.154489994049072266 0.144218996167182922
-0.321393013000488281 0.151958003640174866 0.144143000245094299
-0.321027010679244995 0.149427995085716248 0.144062995910644531
-0.320441007614135742 0.14693799614906311 0.143935993313789368
-0.319821000099182129 0.144452005624771118 0.143801003694534302
-0.318998992443084717 0.142000004649162292 0.143622994422912598
-0.318120002746582031 0.139555007219314575 0.143432006239891052
-0.317052990198135376 0.137140005826950073 0.143200993537902832
-0.315894991159439087 0.134736001491546631 0.142949998378753662
-0.314568996429443359 0.132356002926826477 0.142664000391960144
-0.313095003366470337 0.129996001720428467 0.142344996333122253
-0.311488986015319824 0.127651005983352661 0.141996994614601135
-0.309641987085342407 0.12534099817276001 0.14159800112247467
-0.307680994272232056 0.123039998114109039 0.141175001859664917
-0.305420994758605957 0.120779998600482941 0.140686005353927612
-0.302924990653991699 0.118547998368740082 0.140147998929023743
-0.300186991691589355 0.116343997418880463 0.139556005597114563
-0.29704400897026062 0.114189997315406799 0.138878002762794495
-0.293401002883911133 0.112099997699260712 0.138091996312141418
-0.289146006107330322 0.11008799821138382 0.13717399537563324
-0.283959001302719116 0.108195997774600983 0.13605499267578125
-0.276872992515563965 0.106563001871109009 0.134526997804641724
0.134716004133224487 0.138616994023323059 0.0458320006728172302
0.134708002209663391 0.134992003440856934 0.0458320006728172302
0.134700000286102295 0.131365999579429626 0.0458320006728172302
0.134691998362541199 0.127739995718002319 0.0458320006728172302
0.134683996438980103 0.124114997684955597 0.0458320006728172302
0.134676992893218994 0.120489001274108887 0.0458320006728172302
0.134669005870819092 0.116864003241062164 0.0458320006728172302
0.134661003947257996 0.113237999379634857 0.0458320006728172302
0.134653002023696899 0.109613001346588135 0.0458320006728172302
0.134645998477935791 0.105986997485160828 0.0458320006728172302
0.134637996554374695 0.102361999452114105 0.0458320006728172302
0.134629994630813599 0.098736003041267395 0.0458320006728172302
0.134621992707252502 0.0951109975576400757 0.0458320006728172302
0.1346140056848526 0.0914850011467933655 0.0458320006728172302
0.134607002139091492 0.0878600031137466431 0.0458320006728172302
0.134599000215530396 0.0842339992523193359 0.0458320006728172302
0.134590998291969299 0.0806090012192726135 0.0458320006728172302
0.134582996368408203 0.0769829973578453064 0.0458320006728172302
0.134575992822647095 0.073357999324798584 0.0458320006728172302
-0.0155699998140335083 0.0532779991626739502 0.078183002769947052
-0.024106999859213829 0.0492799989879131317 0.080021001398563385
-0.0297650005668401718 0.0455529987812042236 0.0812389999628067017
-0.0339669995009899139 0.0419659987092018127 0.0821430012583732605
-0.0373760014772415161 0.0384589992463588715 0.0828759968280792236
-0.0402100011706352234 0.0350099988281726837 0.0834849998354911804
-0.0425390005111694336 0.031610000878572464 0.0839859992265701294
-0.0444729998707771301 0.0282480008900165558 0.0844009965658187866
-0.0461120009422302246 0.0249140001833438873 0.0847529992461204529
-0.0475029982626438141 0.0216039996594190598 0.0850510001182556152
-0.0486040003597736359 0.0183179993182420731 0.0852869972586631775
-0.0494479984045028687 0.0150530003011226654 0.0854670032858848572
-0.0501199997961521149 0.011801999993622303 0.085611000657081604
-0.0505620017647743225 0.00856699980795383453 0.0857039988040924072
-0.0508409999310970306 0.00534200016409158707 0.085762999951839447
-0.0508989989757537842 0.00212999992072582245 0.0857739970088005066
-0.0507580004632472992 -0.00107200001366436481 0.0857419967651367188
-0.0503639988601207733 -0.00426199985668063164 0.0856560021638870239
-0.0498830005526542664 -0.0074510001577436924 0.0855510011315345764
-0.0491360016167163849 -0.0106300003826618195 0.0853879973292350769
-0.0481900013983249664 -0.0138050001114606857 0.0851830020546913147
-0.0470770001411437988 -0.0169769991189241409 0.0849409997463226318
-0.045678999274969101 -0.0201440006494522095 0.0846389979124069214
-0.0440209992229938507 -0.0233089998364448547 0.0842799991369247437
-0.0421180017292499542 -0.0264740008860826492 0.0838679969310760498
-0.0399259999394416809 -0.0296379998326301575 0.0833939984440803528
-0.0372989997267723083 -0.0328009985387325287 0.0828270018100738525
-0.0342179983854293823 -0.0359640009701251984 0.0821610018610954285
-0.030575999990105629 -0.0391290001571178436 0.0813750028610229492
-0.0261669997125864029 -0.0422939993441104889 0.0804229974746704102
-0.0205119997262954712 -0.0454570017755031586 0.0792030021548271179
0.134278997778892517 -0.0644130036234855652 0.0458320006728172302
0.134270995855331421 -0.0680380016565322876 0.0458320006728172302
0.134262993931770325 -0.0716639980673789978 0.0458320006728172302
0.134255006909370422 -0.0752890035510063171 0.0458320006728172302
0.134248003363609314 -0.0789149999618530273 0.0458320006728172302
0.13423900306224823 -0.0825399979948997498 0.0458320006728172302
0.134231999516487122 -0.0861660018563270569 0.0458320006728172302
0.134223997592926025 -0.0897909998893737793 0.0458320006728172302
0.134215995669364929 -0.0934169963002204895 0.0458320006728172302
0.134209007024765015 -0.0970420017838478088 0.0458320006728172302
0.134201005101203918 -0.100667998194694519 0.0458320006728172302
0.134193003177642822 -0.104293003678321838 0.0458320006728172302
-0.293397009372711182 -0.106348000466823578 0.137989997863769531
-0.297684997320175171 -0.108878001570701599 0.138912007212638855
-0.301259011030197144 -0.111414000391960144 0.139681994915008545
-0.304316014051437378 -0.113950997591018677 0.140339002013206482
-0.306885004043579102 -0.11649399995803833 0.140891999006271362
-0.30918198823928833 -0.119035996496677399 0.1413860023021698
-0.311266988515853882 -0.121577002108097076 0.14183400571346283
-0.313012003898620605 -0.124123997986316681 0.142208993434906006
-0.314604997634887695 -0.126670002937316895 0.142551004886627197
-0.31602400541305542 -0.129217997193336487 0.142856001853942871
-0.317221999168395996 -0.131770998239517212 0.143113002181053162
-0.3183479905128479 -0.134322002530097961 0.14335399866104126
-0.319211006164550781 -0.136883005499839783 0.143538996577262878
-0.32003098726272583 -0.139441996812820435 0.143714994192123413
-0.320634990930557251 -0.142011001706123352 0.143843993544578552
-0.321170985698699951 -0.144582003355026245 0.143958002328872681
-0.321523010730743408 -0.147162005305290222 0.144032999873161316
-0.321839988231658936 -0.149743005633354187 0.144099995493888855
-0.321601986885070801 -0.152361005544662476 0.144047006964683533
-0.321568995714187622 -0.154964998364448547 0.144039005041122437
-0.321855008602142334 -0.157545998692512512 0.144098997116088867
-0.321545988321304321 -0.160172000527381897 0.14403100311756134
-0.321186989545822144 -0.162801995873451233 0.143952995538711548
-0.320645004510879517 -0.165448993444442749 0.143834993243217468
-0.320019990205764771 -0.168106004595756531 0.143699005246162415
-0.319155007600784302 -0.170784994959831238 0.143510997295379639
-0.318217992782592773 -0.173474997282028198 0.143307998776435852
-0.317018002271652222 -0.176192998886108398 0.143048003315925598
-0.315665006637573242 -0.178929999470710754 0.142755001783370972
-0.31412699818611145 -0.181691005825996399 0.142423003911972046
-0.31224900484085083 -0.184490993618965149 0.142017006874084473
-0.310130000114440918 -0.187324002385139465 0.141559004783630371
-0.307695001363754272 -0.190198004245758057 0.141031995415687561
-0.304758012294769287 -0.193134993314743042 0.140397995710372925
-0.301180988550186157 -0.196152999997138977 0.139625996351242065
-0.296723991632461548 -0.199282005429267883 0.138662993907928467
-0.290324985980987549 -0.202645003795623779 0.137282997369766235
-0.0138900000602006912 -0.259411990642547607 0.0776759982109069824
-0.0201600007712841034 -0.261889994144439697 0.0790259987115859985
-0.0250850003212690353 -0.264517992734909058 0.0800869986414909363
-0.0291360002011060715 -0.267242014408111572 0.0809580013155937195
-0.0325720012187957764 -0.270031005144119263 0.081698000431060791
-0.0355499982833862305 -0.272868990898132324 0.0823379978537559509
-0.0381660014390945435 -0.275745004415512085 0.0829010009765625
-0.0404889993369579315 -0.278650999069213867 0.0834000036120414734
-0.0425040014088153839 -0.281592011451721191 0.0838330015540122986
-0.0442290008068084717 -0.284566998481750488 0.0842029973864555359
-0.0457689985632896423 -0.287562012672424316 0.0845339968800544739
-0.0471020005643367767 -0.290580987930297852 0.0848200023174285889
-0.0481689982116222382 -0.29363599419593811 0.0850479975342750549
-0.0490970015525817871 -0.296707987785339355 0.0852470025420188904
-0.0498259998857975006 -0.29980701208114624 0.0854030027985572815
-0.0503229983150959015 -0.302940994501113892 0.0855079963803291321
-0.0507330000400543213 -0.306086987257003784 0.0855949968099594116
-0.0508919991552829742 -0.309273004531860352 0.0856280028820037842
-0.0508560016751289368 -0.312490999698638916 0.0856190025806427002
-0.050606999546289444 -0.315744996070861816 0.0855640023946762085
-0.0501560010015964508 -0.319036006927490234 0.0854649990797042847
-0.0494920015335083008 -0.322365999221801758 0.08532000333070755
-0.0486340001225471497 -0.325733006000518799 0.0851339995861053467
-0.0474859997630119324 -0.329156994819641113 0.0848850011825561523
-0.0460110008716583252 -0.332644999027252197 0.0845649987459182739
-0.0442240014672279358 -0.336196988821029663 0.0841780006885528564
-0.0420470014214515686 -0.339830011129379272 0.0837080031633377075
-0.0393630005419254303 -0.343567997217178345 0.0831269994378089905
-0.0359839983284473419 -0.347452014684677124 0.0823969990015029907
-0.0315800011157989502 -0.351547986268997192 0.0814459994435310364
-0.0255239997059106827 -0.355987995862960815 0.0801390036940574646
-0.0123349996283650398 -0.361864000558853149 0.077293001115322113
0.133569002151489258 -0.39433598518371582 0.0458320006728172302
0.133561000227928162 -0.39796099066734314 0.0458320006728172302
0.133552998304367065 -0.401587009429931641 0.0458320006728172302
0.133544996380805969 -0.405211985111236572 0.0458320006728172302
0.133536994457244873 -0.408838003873825073 0.0458320006728172302
0.133529007434844971 -0.412463009357452393 0.0458320006728172302
0.133522003889083862 -0.416088998317718506 0.0458320006728172302
0.133514001965522766 -0.419714003801345825 0.0458320006728172302
0.13350600004196167 -0.423339992761611938 0.0458320006728172302
0.133498996496200562 -0.426966011524200439 0.0458320006728172302
0.133490994572639465 -0.430590987205505371 0.0458320006728172302
0.133482992649078369 -0.434217005968093872 0.0458320006728172302
0.133475005626678467 -0.437842011451721191 0.0458320006728172302
0.133467003703117371 -0.441468000411987305 0.0458320006728172302
0.133460000157356262 -0.445093005895614624 0.0458320006728172302
0.133451998233795166 -0.448718994855880737 0.0458320006728172302
0.13344399631023407 -0.452344000339508057 0.0458320006728172302
0.133435994386672974 -0.45596998929977417 0.0458320006728172302
0.133428007364273071 -0.459594994783401489 0.0458320006728172302
0.133420005440711975 -0.46322101354598999 0.0458320006728172302
0.148423999547958374 0.47265198826789856 0.0458320006728172302
0.148415997624397278 0.468998998403549194 0.045830998569726944
0.148407995700836182 0.465346008539199829 0.0458320006728172302
0.148399993777275085 0.461692988872528076 0.0458320006728172302
0.148393005132675171 0.458039999008178711 0.0458320006728172302
0.148385003209114075 0.454387009143829346 0.0458320006728172302
0.148377001285552979 0.450733006000518799 0.0458320006728172302
0.148368999361991882 0.447079986333847046 0.0458320006728172302
0.148360997438430786 0.443426996469497681 0.0458320006728172302
0.14835299551486969 0.439774006605148315 0.0458320006728172302
0.148344993591308594 0.436120986938476562 0.0458320006728172302
0.148337006568908691 0.432467997074127197 0.0458320006728172302
0.148329004645347595 0.428815007209777832 0.0458320006728172302
0.148322001099586487 0.425161987543106079 0.0458320006728172302
0.148313999176025391 0.42150801420211792 0.0458320006728172302
-0.0316760018467903137 0.357219010591506958 0.0842859968543052673
-0.0366889983415603638 0.352497994899749756 0.0853549987077713013
-0.0402350015938282013 0.348226994276046753 0.0861110016703605652
-0.0429649986326694489 0.344208002090454102 0.0866929963231086731
-0.0451020002365112305 0.340371996164321899 0.0871480032801628113
-0.0467690005898475647 0.336679995059967041 0.0875030010938644409
-0.0480949990451335907 0.333090990781784058 0.0877849981188774109
-0.0491469986736774445 0.329584985971450806 0.088008001446723938
-0.0499549992382526398 0.326151996850967407 0.0881789997220039368
-0.0504250004887580872 0.322816014289855957 0.0882780030369758606
-0.050797000527381897 0.319507986307144165 0.0883570015430450439
-0.0509059987962245941 0.316273987293243408 0.0883779972791671753
-0.050817001610994339 0.313093990087509155 0.0883579999208450317
-0.0504980012774467468 0.309974998235702515 0.0882880017161369324
-0.0500760003924369812 0.30688101053237915 0.0881970003247261047
-0.0494230017066001892 0.303846001625061035 0.0880559980869293213
-0.0486549995839595795 0.300837993621826172 0.0878899991512298584
-0.0476659983396530151 0.297883987426757812 0.087677001953125
-0.0465009994804859161 0.294970005750656128 0.0874269977211952209
-0.0452120006084442139 0.292082995176315308 0.0871500000357627869
-0.0436399988830089569 0.289261013269424438 0.0868119969964027405
-0.0419070012867450714 0.28647199273109436 0.0864410027861595154
-0.0400100015103816986 0.283715009689331055 0.0860339999198913574
-0.0377810001373291016 0.281031996011734009 0.0855560004711151123
-0.0353230014443397522 0.278394013643264771 0.0850289985537528992
-0.306888014078140259 0.19675600528717041 0.143055006861686707
-0.30980798602104187 0.193462997674942017 0.143677994608879089
-0.312209993600845337 0.190299004316329956 0.144189998507499695
-0.314247012138366699 0.187227994203567505 0.144623994827270508
-0.315905988216400146 0.184248000383377075 0.144977003335952759
-0.317286014556884766 0.18133699893951416 0.145271003246307373
-0.318509012460708618 0.178466007113456726 0.145530998706817627
-0.319449007511138916 0.175660997629165649 0.14573100209236145
-0.320248007774353027 0.172888994216918945 0.145899996161460876
-0.320890992879867554 0.170154005289077759 0.146036997437477112
-0.32133600115776062 0.167463004589080811 0.146129995584487915
-0.321700006723403931 0.16479000449180603 0.14620700478553772
-0.319586008787155151 0.16261899471282959 0.145753994584083557
-0.314199000597000122 0.161092996597290039 0.144602000713348389
-0.314227014780044556 0.158472999930381775 0.144606992602348328
-0.321725010871887207 0.154394000768661499 0.146208003163337708
-0.321379989385604858 0.151862993836402893 0.146133005619049072
-0.321004986763000488 0.149335995316505432 0.146051004528999329
-0.320419996976852417 0.146846994757652283 0.145925000309944153
-0.31979098916053772 0.144363000988960266 0.145788997411727905
-0.318969011306762695 0.141911998391151428 0.145612999796867371
-0.31808200478553772 0.139468997716903687 0.145421996712684631
-0.317016005516052246 0.137054994702339172 0.145192995667457581
-0.315849006175994873 0.134653002023696899 0.144942000508308411
-0.314523994922637939 0.132274001836776733 0.144657999277114868
-0.313041001558303833 0.129916995763778687 0.144339993596076965
-0.311435014009475708 0.127572998404502869 0.143995001912117004
-0.309579014778137207 0.125265002250671387 0.143597006797790527
-0.30760800838470459 0.12296699732542038 0.143175005912780762
-0.305348008871078491 0.120708003640174866 0.142691001296043396
-0.302841007709503174 0.118478000164031982 0.142153993248939514
-0.300089985132217407 0.116277001798152924 0.14156399667263031
-0.296947002410888672 0.114124000072479248 0.140891000628471375
-0.293287009000778198 0.112037003040313721 0.140108004212379456
-0.289011001586914062 0.110027998685836792 0.13919299840927124
-0.283796995878219604 0.108142003417015076 0.138077005743980408
0.14771600067615509 0.143870994448661804 0.0458320006728172302
0.147707998752593994 0.140217006206512451 0.0458320006728172302
0.147699996829032898 0.136564001441001892 0.0458320006728172302
0.14769299328327179 0.132910996675491333 0.0458320006728172302
0.147683992981910706 0.129258006811141968 0.0458320006728172302
0.147677004337310791 0.125605002045631409 0.0458320006728172302
0.147669002413749695 0.12195199728012085 0.0458320006728172302
0.147661000490188599 0.118298999965190887 0.0458320006728172302
0.147652998566627502 0.114646002650260925 0.0458320006728172302
0.147645995020866394 0.110991999506950378 0.0458320006728172302
0.147637993097305298 0.107339002192020416 0.0458320006728172302
0.147630006074905396 0.103685997426509857 0.045830998569726944
0.147622004151344299 0.100033000111579895 0.0458320006728172302
0.147614002227783203 0.0963800027966499329 0.0458320006728172302
0.147606000304222107 0.0927269980311393738 0.0458320006728172302
0.147597998380661011 0.0890740007162094116 0.0458320006728172302
0.147589996457099915 0.0854210034012794495 0.0458320006728172302
0.147581994533538818 0.0817670002579689026 0.0458320006728172302
0.147575005888938904 0.0781140029430389404 0.0458320006728172302
-0.0157929994165897369 0.0532030016183853149 0.080750003457069397
-0.0242199990898370743 0.0492170006036758423 0.0825499966740608215
-0.0298350006341934204 0.0454949997365474701 0.0837479978799819946
-0.0340219996869564056 0.041910998523235321 0.0846420004963874817
-0.0374200008809566498 0.0384070016443729401 0.0853670015931129456
-0.0402439981698989868 0.0349600017070770264 0.0859690010547637939
-0.0425719991326332092 0.031560998409986496 0.086465001106262207
-0.0444989986717700958 0.028201000764966011 0.0868759974837303162
-0.0461319983005523682 0.0248700007796287537 0.0872230008244514465
-0.0475180000066757202 0.0215610004961490631 0.0875179991126060486
-0.0486180000007152557 0.0182770006358623505 0.0877519994974136353
-0.0494569987058639526 0.0150140002369880676 0.0879300013184547424
-0.0501249991357326508 0.0117640001699328423 0.0880710035562515259
-0.0505659990012645721 0.0085300002247095108 0.0881640017032623291
-0.0508470013737678528 0.00530700013041496277 0.0882230028510093689
-0.0508989989757537842 0.00209699990227818489 0.0882320031523704529
-0.0507569983601570129 -0.001104000024497509 0.088200002908706665
-0.0503600016236305237 -0.00429299985989928246 0.0881140008568763733
-0.0498769991099834442 -0.00748000014573335648 0.0880089998245239258
-0.049129001796245575 -0.0106579996645450592 0.0878480002284049988
-0.0481810010969638824 -0.013830999843776226 0.0876440033316612244
-0.0470659993588924408 -0.0170019995421171188 0.0874039977788925171
-0.0456679984927177429 -0.0201680008322000504 0.0871040001511573792
-0.0440080016851425171 -0.0233309995383024216 0.086746998131275177
-0.0421039983630180359 -0.026494000107049942 0.0863389968872070312
-0.039909999817609787 -0.0296570006757974625 0.0858680009841918945
-0.0372850000858306885 -0.0328189991414546967 0.0853049978613853455
-0.0342019982635974884 -0.0359809994697570801 0.084645003080368042
-0.030557999387383461 -0.0391439981758594513 0.0838640034198760986
-0.0261470004916191101 -0.0423079989850521088 0.0829199999570846558
-0.0204840004444122314 -0.0454690009355545044 0.081707000732421875
0.147267997264862061 -0.0643580034375190735 0.0458320006728172302
0.147259995341300964 -0.0680110007524490356 0.0458320006728172302
0.147251993417739868 -0.0716639980673789978 0.0458320006728172302
0.147244006395339966 -0.0753170028328895569 0.0458320006728172302
0.147237002849578857 -0.078970000147819519 0.0458320006728172302
0.147229000926017761 -0.0826229974627494812 0.0458320006728172302
0.147220999002456665 -0.0862770006060600281 0.0458320006728172302
0.147212997078895569 -0.0899299979209899902 0.0458320006728172302
0.147204995155334473 -0.0935830026865005493 0.0458320006728172302
0.147196993231773376 -0.0972360000014305115 0.0458320006728172302
0.147189006209373474 -0.100888997316360474 0.0458320006728172302
0.147182002663612366 -0.104542002081871033 0.0458320006728172302
-0.293372988700866699 -0.106334000825881958 0.140026003122329712
-0.297663986682891846 -0.108864001929759979 0.140942007303237915
-0.301239997148513794 -0.111397996544837952 0.141706004738807678
-0.304295986890792847 -0.113935001194477081 0.142358005046844482
-0.306867986917495728 -0.11647699773311615 0.14290599524974823
-0.309166997671127319 -0.119018003344535828 0.143397003412246704
-0.311253994703292847 -0.121556997299194336 0.143841996788978577
-0.312997996807098389 -0.12410300225019455 0.144213005900382996
-0.314592987298965454 -0.126647993922233582 0.144554004073143005
-0.316011995077133179 -0.12919500470161438 0.144856005907058716
-0.317211002111434937 -0.131745994091033936 0.145110994577407837
-0.318336993455886841 -0.134296000003814697 0.145349994301795959
-0.319202005863189697 -0.136856004595756531 0.14553399384021759
-0.320024013519287109 -0.139413997530937195 0.145708993077278137
-0.320627987384796143 -0.141982004046440125 0.145836994051933289
-0.3211669921875 -0.144550994038581848 0.145951002836227417
-0.321518003940582275 -0.147130995988845825 0.146025002002716064
-0.321772992610931396 -0.149715006351470947 0.146078005433082581
-0.314233988523483276 -0.152839004993438721 0.144464999437332153
-0.314880996942520142 -0.155411005020141602 0.144602000713348389
-0.321568012237548828 -0.157532006502151489 0.146031007170677185
-0.321550995111465454 -0.160134002566337585 0.146026000380516052
-0.321193009614944458 -0.162763997912406921 0.14594799280166626
-0.320654004812240601 -0.165408998727798462 0.14583200216293335
-0.320030003786087036 -0.168063998222351074 0.14569699764251709
-0.319169998168945312 -0.170742005109786987 0.145511999726295471
-0.318237990140914917 -0.173429995775222778 0.14531099796295166
-0.317039012908935547 -0.176146999001502991 0.14505399763584137
-0.315692007541656494 -0.178882002830505371 0.1447640061378479
-0.314155012369155884 -0.181641995906829834 0.14443400502204895
-0.312283992767333984 -0.184440001845359802 0.144032999873161316
-0.310175001621246338 -0.187270998954772949 0.143581002950668335
-0.307750999927520752 -0.190142005681991577 0.143060997128486633
-0.304814994335174561 -0.193077996373176575 0.14243200421333313
-0.301254004240036011 -0.196092993021011353 0.141670003533363342
-0.0137179996818304062 -0.259353995323181152 0.0801620036363601685
-0.0200180001556873322 -0.261826992034912109 0.0815080031752586365
-0.024965999647974968 -0.2644520103931427 0.0825650021433830261
-0.029033999890089035 -0.267172008752822876 0.083433002233505249
-0.0324850007891654968 -0.269957989454269409 0.0841699987649917603
-0.035473998636007309 -0.272794008255004883 0.0848079994320869446
-0.0381009988486766815 -0.275667011737823486 0.0853679999709129333
-0.0404350012540817261 -0.278571009635925293 0.085865996778011322
-0.042447999119758606 -0.281511008739471436 0.086295001208782196
-0.0441819988191127777 -0.284482985734939575 0.0866639986634254456
-0.0457310006022453308 -0.287474989891052246 0.0869939997792243958
-0.047063000500202179 -0.290493994951248169 0.0872770026326179504
-0.0481389984488487244 -0.293545991182327271 0.0875060036778450012
-0.049074999988079071 -0.296615004539489746 0.0877050012350082397
-0.0498039983212947845 -0.299713999032974243 0.0878589972853660583
-0.0503100007772445679 -0.302845001220703125 0.0879660025238990784
-0.0507260002195835114 -0.305988013744354248 0.0880530029535293579
-0.0508910007774829865 -0.309170991182327271 0.0880869999527931213
-0.0508639998733997345 -0.312386006116867065 0.0880799964070320129
-0.0506209991872310638 -0.315638989210128784 0.088026002049446106
-0.0501709990203380585 -0.318926990032196045 0.0879290029406547546
-0.0495189987123012543 -0.322254002094268799 0.0877880007028579712
-0.0486720018088817596 -0.325617998838424683 0.0876049995422363281
-0.0475259982049465179 -0.329039007425308228 0.0873590037226676941
-0.0460649989545345306 -0.332522988319396973 0.0870449990034103394
-0.0442939996719360352 -0.336071014404296875 0.0866639986634254456
-0.04213700070977211 -0.339697986841201782 0.0862020030617713928
-0.0394780002534389496 -0.343430012464523315 0.0856309980154037476
-0.0361299999058246613 -0.347306013107299805 0.0849139988422393799
-0.0317680016160011292 -0.351392000913619995 0.0839790031313896179
-0.0257729999721050262 -0.35581699013710022 0.0826949998736381531
-0.013237999752163887 -0.361562013626098633 0.0800129994750022888
0.146551996469497681 -0.396791994571685791 0.0458320006728172302
0.146544992923736572 -0.400445997714996338 0.0458320006728172302
0.14653700590133667 -0.404098987579345703 0.0458320006728172302
0.146529003977775574 -0.407752007246017456 0.0458320006728172302
0.146521002054214478 -0.411404997110366821 0.0458320006728172302
0.146513000130653381 -0.415057986974716187 0.0458320006728172302
0.146504998207092285 -0.418711006641387939 0.0458320006728172302
0.146496996283531189 -0.422363996505737305 0.0458320006728172302
0.146489992737770081 -0.42601698637008667 0.0458320006728172302
0.146482005715370178 -0.429670989513397217 0.0458320006728172302
0.146474003791809082 -0.43332400918006897 0.0458320006728172302
0.146466001868247986 -0.436976999044418335 0.0458320006728172302
0.14645799994468689 -0.4406299889087677 0.0458320006728172302
0.146449998021125793 -0.444283008575439453 0.0458320006728172302
0.146442994475364685 -0.447935998439788818 0.0458320006728172302
0.146434992551803589 -0.451588988304138184 0.0458320006728172302
0.146427005529403687 -0.455242007970809937 0.0458320006728172302
0.14641900360584259 -0.458896011114120483 0.0458320006728172302
0.146411001682281494 -0.462549000978469849 0.0458320006728172302
0.146402999758720398 -0.466201990842819214 0.0458320006728172302
0.161597996950149536 0.465784013271331787 0.0458320006728172302
0.161581993103027344 0.458420991897583008 0.0458320006728172302
0.161574006080627441 0.454739987850189209 0.0458320006728172302
0.161566004157066345 0.451059013605117798 0.0458320006728172302
0.161558002233505249 0.447378009557723999 0.0458320006728172302
0.161550000309944153 0.4436970055103302 0.0458320006728172302
0.161541998386383057 0.440016001462936401 0.0458320006728172302
0.16153399646282196 0.436334013938903809 0.0458320006728172302
0.161525994539260864 0.43265300989151001 0.0458320006728172302
0.16151900589466095 0.428972005844116211 0.0458320006728172302
0.161510005593299866 0.425291001796722412 0.0458320006728172302
0.16150200366973877 0.421609997749328613 0.0458320006728172302
-0.0320269986987113953 0.356927990913391113 0.0868479982018470764
-0.0369389988481998444 0.352239012718200684 0.0878869965672492981
-0.0403910018503665924 0.347997993230819702 0.0886180028319358826
-0.0430850014090538025 0.343991994857788086 0.0891870036721229553
-0.0452199988067150116 0.340157985687255859 0.0896380022168159485
-0.0468589998781681061 0.336475998163223267 0.0899839997291564941
-0.0481600016355514526 0.332895994186401367 0.0902590006589889526
-0.0491910018026828766 0.329398006200790405 0.0904759988188743591
-0.0499950014054775238 0.325967013835906982 0.0906450003385543823
-0.0504500009119510651 0.322636991739273071 0.0907389968633651733
-0.0506739988923072815 0.319371998310089111 0.0907860025763511658
-0.0476230010390281677 0.316996991634368896 0.090136997401714325
-0.0506419986486434937 0.312972992658615112 0.0907759964466094971
-0.0504759997129440308 0.309814006090164185 0.0907389968633651733
-0.0500539988279342651 0.306721001863479614 0.0906480029225349426
-0.0493870005011558533 0.303692013025283813 0.0905049964785575867
-0.0486049987375736237 0.300689011812210083 0.090337999165058136
-0.0476160012185573578 0.297735989093780518 0.0901269987225532532
-0.0464369989931583405 0.294827014207839966 0.0898760035634040833
-0.0451349988579750061 0.291943997144699097 0.0895980000495910645
-0.0435630008578300476 0.289122998714447021 0.0892639979720115662
-0.0418159998953342438 0.286338001489639282 0.0888919979333877563
-0.0399029999971389771 0.283587008714675903 0.0884850025177001953
-0.0376750007271766663 0.280903995037078857 0.0880109965801239014
-0.0351999998092651367 0.278270989656448364 0.0874850004911422729
-0.0324609987437725067 0.275689989328384399 0.0869029983878135681
-0.298413008451461792 0.203876003623008728 0.143276005983352661
-0.30337899923324585 0.200078994035720825 0.14432699978351593
-0.307040989398956299 0.196603000164031982 0.145101994276046753
-0.309926986694335938 0.193320006132125854 0.145713001489639282
-0.312303006649017334 0.190163999795913696 0.146216005086898804
-0.314318001270294189 0.187098994851112366 0.146641999483108521
-0.315977007150650024 0.184120997786521912 0.146991997957229614
-0.317339986562728882 0.181215003132820129 0.147279992699623108
-0.318547993898391724 0.178348004817962646 0.147534996271133423
-0.319487988948822021 0.175543993711471558 0.147733002901077271
-0.320273995399475098 0.172776997089385986 0.147898003458976746
-0.320917010307312012 0.170043006539344788 0.148032993078231812
-0.321350991725921631 0.167355000972747803 0.148123994469642639
-0.321714997291564941 0.16468299925327301 0.148200005292892456
-0.315863996744155884 0.163268998265266418 0.146959006786346436
-0.314204007387161255 0.160990998148918152 0.146605998277664185
-0.314222991466522217 0.158372998237609863 0.14660799503326416
-0.321711987257003784 0.154296994209289551 0.148194998502731323
-0.321366995573043823 0.151767000555992126 0.148120000958442688
-0.320982992649078369 0.149242997169494629 0.148037999868392944
-0.320398002862930298 0.146754994988441467 0.147912994027137756
-0.319761008024215698 0.144273996353149414 0.147775992751121521
-0.318940013647079468 0.141824007034301758 0.147600993514060974
-0.318044006824493408 0.139384001493453979 0.147410005331039429
-0.316978991031646729 0.136969998478889465 0.147183001041412354
-0.315802991390228271 0.134571000933647156 0.146933004260063171
-0.314478009939193726 0.132192999124526978 0.146650999784469604
-0.312986999750137329 0.1298380047082901 0.146332994103431702
-0.311381995677947998 0.12749500572681427 0.145991995930671692
-0.309516012668609619 0.125189006328582764 0.145594999194145203
-0.307534009218215942 0.12289399653673172 0.145173996686935425
-0.305276006460189819 0.120635002851486206 0.144693002104759216
-0.302756994962692261 0.118408001959323883 0.144158005714416504
-0.299991995096206665 0.116209998726844788 0.143571004271507263
-0.296849995851516724 0.114058002829551697 0.142903998494148254
-0.293173998594284058 0.111974000930786133 0.142122998833656311
-0.288877010345458984 0.109968997538089752 0.141211003065109253
-0.283634006977081299 0.108087003231048584 0.140098005533218384
-0.276322007179260254 0.106487996876239777 0.138546004891395569
0.160899996757507324 0.141841992735862732 0.0458320006728172302
0.160892993211746216 0.138161003589630127 0.0458320006728172302
0.160885006189346313 0.134479999542236328 0.0458320006728172302
0.160877004265785217 0.130798995494842529 0.0458320006728172302
0.160868003964424133 0.127118006348609924 0.0458320006728172302
0.160861000418663025 0.123437002301216125 0.0458320006728172302
0.160852998495101929 0.119755998253822327 0.0458320006728172302
0.160844996571540833 0.116074003279209137 0.0458320006728172302
0.160836994647979736 0.112392999231815338 0.0458320006728172302
0.16082899272441864 0.108712002635002136 0.0458320006728172302
0.160821005702018738 0.105030998587608337 0.0458320006728172302
0.160813003778457642 0.101350001990795135 0.0458320006728172302
0.160805001854896545 0.0976689979434013367 0.0458320006728172302
0.160796999931335449 0.093987002968788147 0.0458320006728172302
0.160788998007774353 0.0903059989213943481 0.0458320006728172302
0.160780996084213257 0.0866250023245811462 0.0458320006728172302
0.160774007439613342 0.0829439982771873474 0.0458320006728172302
0.160766005516052246 0.0792630016803741455 0.0458320006728172302
0.160750001668930054 0.0719010010361671448 0.0458320006728172302
-0.0160150006413459778 0.053128998726606369 0.0833130031824111938
-0.0243330001831054688 0.0491530001163482666 0.0850759968161582947
-0.029905000701546669 0.0454370006918907166 0.086254999041557312
-0.0340769998729228973 0.0418570004403591156 0.0871390029788017273
-0.0374640002846717834 0.038353998214006424 0.0878549963235855103
-0.040279000997543335 0.0349100008606910706 0.088450998067855835
-0.0426050014793872833 0.0315130017697811127 0.0889429971575737
-0.04452500119805336 0.0281550008803606033 0.0893480032682418823
-0.0461510010063648224 0.0248249992728233337 0.0896919965744018555
-0.0475319996476173401 0.0215189997106790543 0.0899830013513565063
-0.0486319996416568756 0.0182360000908374786 0.0902149975299835205
-0.0494659990072250366 0.0149739999324083328 0.0903899967670440674
-0.0501299984753131866 0.0117260003462433815 0.090530000627040863
-0.050570998340845108 0.00849399995058774948 0.0906220003962516785
-0.050314001739025116 0.00530100008472800255 0.090566001832485199
-0.0480530001223087311 0.00221100007183849812 0.0900849997997283936
-0.0507550016045570374 -0.00113600003533065319 0.0906559973955154419
-0.0503560006618499756 -0.00432300008833408356 0.0905700027942657471
-0.0498699992895126343 -0.00750900013372302055 0.0904660001397132874
-0.0491230003535747528 -0.0106849996373057365 0.0903059989213943481
-0.0481720007956027985 -0.0138569995760917664 0.0901030004024505615
-0.0470549985766410828 -0.0170259997248649597 0.089864000678062439
-0.0456579998135566711 -0.0201910007745027542 0.0895669981837272644
-0.0439959987998008728 -0.0233529992401599884 0.0892129987478256226
-0.042089998722076416 -0.0265149995684623718 0.0888070017099380493
-0.0398939996957778931 -0.0296759996563196182 0.0883399993181228638
-0.0372699983417987823 -0.0328369997441768646 0.0877820029854774475
-0.0341849997639656067 -0.035996999591588974 0.0871260017156600952
-0.0305400006473064423 -0.0391589999198913574 0.0863519981503486633
-0.0261269994080066681 -0.0423219986259937286 0.0854139998555183411
-0.0204559992998838425 -0.0454810000956058502 0.0842100009322166443
-0.0122880004346370697 -0.0486270003020763397 0.0824759975075721741
0.160464003682136536 -0.0606210008263587952 0.0458320006728172302
0.160457000136375427 -0.0643019974231719971 0.0458320006728172302
0.160448998212814331 -0.0679830014705657959 0.0458320006728172302
0.160440996289253235 -0.0716639980673789978 0.0458320006728172302
0.160432994365692139 -0.0753460004925727844 0.0458320006728172302
0.160425007343292236 -0.0790269970893859863 0.0458320006728172302
0.16041700541973114 -0.0827080011367797852 0.0458320006728172302
0.160409003496170044 -0.0863889977335929871 0.0458320006728172302
0.160401001572608948 -0.0900700017809867859 0.0458320006728172302
0.160392999649047852 -0.0937509983777999878 0.0458320006728172302
0.160384997725486755 -0.0974320024251937866 0.0458320006728172302
0.160376995801925659 -0.101113997399806976 0.0458320006728172302
0.160368993878364563 -0.104795001447200775 0.0458320006728172302
0.160361006855964661 -0.108475998044013977 0.0458320006728172302
-0.28793799877166748 -0.103803999722003937 0.140913993120193481
-0.293350011110305786 -0.106320999562740326 0.142059996724128723
-0.297643005847930908 -0.108850002288818359 0.142969995737075806
-0.301221996545791626 -0.111382998526096344 0.143728002905845642
-0.304275989532470703 -0.113918997347354889 0.144373998045921326
-0.30684998631477356 -0.116458997130393982 0.14491899311542511
-0.309150993824005127 -0.118998996913433075 0.145405992865562439
-0.31123998761177063 -0.121536999940872192 0.145848006010055542
-0.312983006238937378 -0.124081999063491821 0.146216005086898804
-0.314581006765365601 -0.126625999808311462 0.146553993225097656
-0.315999001264572144 -0.129171997308731079 0.146853998303413391
-0.317200988531112671 -0.131722003221511841 0.14710700511932373
-0.318325996398925781 -0.134270995855331421 0.147345006465911865
-0.319193005561828613 -0.136829003691673279 0.147527992725372314
-0.320017993450164795 -0.139386996626853943 0.147700995206832886
-0.320621013641357422 -0.141953006386756897 0.147827997803688049
-0.321162998676300049 -0.144520998001098633 0.147942006587982178
-0.321514010429382324 -0.147099003195762634 0.148015007376670837
-0.321236014366149902 -0.149718001484870911 0.147955000400543213
-0.314231991767883301 -0.152805998921394348 0.146467998623847961
-0.314195007085800171 -0.155424997210502625 0.146458998322486877
-0.319216996431350708 -0.157670006155967712 0.147523000836372375
-0.321556001901626587 -0.160097002983093262 0.148018002510070801
-0.321197986602783203 -0.162725001573562622 0.147940993309020996
-0.320663988590240479 -0.165369004011154175 0.147826999425888062
-0.320039987564086914 -0.168023005127906799 0.14769299328327179
-0.319184005260467529 -0.170699000358581543 0.14751000702381134
-0.318257987499237061 -0.173385992646217346 0.14731299877166748
-0.31705901026725769 -0.176100999116897583 0.147056996822357178
-0.315717995166778564 -0.178835004568099976 0.14677099883556366
-0.314182013273239136 -0.181593000888824463 0.146443992853164673
-0.312319010496139526 -0.184388995170593262 0.146047994494438171
-0.310218989849090576 -0.187216997146606445 0.145601004362106323
-0.307806998491287231 -0.190087005496025085 0.14508800208568573
-0.304872989654541016 -0.193020999431610107 0.144464999437332153
-0.301326990127563477 -0.196032002568244934 0.143711000680923462
-0.296911001205444336 -0.199154004454612732 0.14277300238609314
-0.290659993886947632 -0.202497005462646484 0.14144599437713623
-0.0135449999943375587 -0.259297013282775879 0.0826470032334327698
-0.0198769997805356979 -0.261765003204345703 0.0839880034327507019
-0.0248460005968809128 -0.264385014772415161 0.0850410014390945435
-0.0289329998195171356 -0.26710200309753418 0.0859069973230361938
-0.0323980003595352173 -0.269885987043380737 0.0866400003433227539
-0.0353990010917186737 -0.272718995809555054 0.0872749984264373779
-0.0380369983613491058 -0.2755889892578125 0.0878340005874633789
-0.0403789989650249481 -0.278490990400314331 0.0883290022611618042
