ply
format ascii 1.0
element vertex 740
property float x
property float y
property float z
end_header
0.459749013185501099 0.465512990951538086 -0.0497869998216629028
0.457385003566741943 0.466360002756118774 -0.0499260015785694122
0.45488700270652771 0.466699987649917603 -0.0502680018544197083
0.452244997024536133 0.466500997543334961 -0.0508249998092651367
0.449386000633239746 0.465503990650177002 -0.0517010018229484558
0.44620099663734436 0.463319987058639526 -0.0530529990792274475
0.195191994309425354 0.457423001527786255 -0.101410999894142151
0.193740993738174438 0.460974991321563721 -0.100435003638267517
0.191751003265380859 0.463414996862411499 -0.0999469980597496033
0.189399003982543945 0.465121001005172729 -0.0997840017080307007
0.186746999621391296 0.466224998235702515 -0.0998860001564025879
0.183776006102561951 0.46670299768447876 -0.100267000496387482
0.180327996611595154 0.466253012418746948 -0.101060003042221069
0.495151013135910034 0.430483996868133545 -0.0534470006823539734
0.493158012628555298 0.433129012584686279 -0.0528910011053085327
0.490960985422134399 0.434808999300003052 -0.0527089983224868774
0.488633990287780762 0.435898005962371826 -0.0527569986879825592
0.486189007759094238 0.436462998390197754 -0.0530089996755123138
0.48362201452255249 0.436504989862442017 -0.0534659996628761292
0.480913013219833374 0.43594399094581604 -0.0541579984128475189
0.478011012077331543 0.434583991765975952 -0.0551650002598762512
0.474599987268447876 0.431091010570526123 -0.0570079982280731201
0.465775996446609497 0.459113001823425293 -0.0488630011677742004
0.46394801139831543 0.462125986814498901 -0.0481490008533000946
0.46189001202583313 0.46419098973274231 -0.0478070005774497986
0.459659993648529053 0.465561002492904663 -0.0477389991283416748
0.457291007041931152 0.466389000415802002 -0.0478850007057189941
0.454789996147155762 0.466710001230239868 -0.0482329986989498138
0.452138990163803101 0.466473013162612915 -0.0488019995391368866
0.44927099347114563 0.46544298529624939 -0.0496870018541812897
0.446076005697250366 0.463218003511428833 -0.0510490015149116516
0.195186004042625427 0.457441002130508423 -0.0991149991750717163
0.193735003471374512 0.460990011692047119 -0.0981450006365776062
0.191742002964019775 0.463423013687133789 -0.097663000226020813
0.189390003681182861 0.465124994516372681 -0.0975010022521018982
0.186737999320030212 0.466228008270263672 -0.0976039990782737732
0.183768004179000854 0.466704010963439941 -0.0979830026626586914
0.180319994688034058 0.466250002384185791 -0.0987740010023117065
0.496619999408721924 0.425902009010314941 -0.0526949986815452576
0.495070010423660278 0.430649995803833008 -0.0513320006430149078
0.493059992790222168 0.433209985494613647 -0.0508110001683235168
0.49085700511932373 0.434864997863769531 -0.0506399981677532196
0.488525986671447754 0.435930013656616211 -0.0506960004568099976
0.486077010631561279 0.436473995447158813 -0.0509550012648105621
0.483507007360458374 0.436493009328842163 -0.0514179989695549011
0.480791985988616943 0.435907989740371704 -0.0521170012652873993
0.477874010801315308 0.434473991394042969 -0.053146999329328537
0.474436014890670776 0.430866003036499023 -0.0550259985029697418
0.465705990791320801 0.459253996610641479 -0.0467760004103183746
0.463869988918304443 0.462224990129470825 -0.0460809990763664246
0.461805999279022217 0.464260011911392212 -0.0457520000636577606
0.459571003913879395 0.465608000755310059 -0.0456929989159107208
0.457197993993759155 0.466417014598846436 -0.0458460003137588501
0.454692989587783813 0.466720014810562134 -0.0461990013718605042
0.452030986547470093 0.46644100546836853 -0.0467820018529891968
0.449156999588012695 0.465382009744644165 -0.0476740002632141113
0.445932000875473022 0.463045001029968262 -0.0490740016102790833
0.193728998303413391 0.461003988981246948 -0.0958570018410682678
0.191733002662658691 0.46342998743057251 -0.0953809991478919983
0.189381003379821777 0.465130001306533813 -0.0952209979295730591
0.186729997396469116 0.466230005025863647 -0.095324002206325531
0.183760002255439758 0.466704010963439941 -0.0957019999623298645
0.180310994386672974 0.466246992349624634 -0.0964900031685829163
0.175926998257637024 0.463986009359359741 -0.0980750024318695068
0.494985997676849365 0.430806010961532593 -0.0492219999432563782
0.492960989475250244 0.433290988206863403 -0.048732999712228775
0.490754008293151855 0.434920012950897217 -0.048572000116109848
0.488418996334075928 0.43596300482749939 -0.0486360006034374237
0.485965996980667114 0.436484992504119873 -0.0489020012319087982
0.483390986919403076 0.436482012271881104 -0.0493710003793239594
0.4806709885597229 0.435871005058288574 -0.050076998770236969
0.477735996246337891 0.434361010789871216 -0.0511320009827613831
0.47423100471496582 0.430463999509811401 -0.0531140007078647614
0.465636998414993286 0.459394007921218872 -0.0446910001337528229
0.463791012763977051 0.462323009967803955 -0.044015001505613327
0.46172100305557251 0.464329987764358521 -0.0436990000307559967
0.459482014179229736 0.465656012296676636 -0.0436489991843700409
0.457105010747909546 0.466444998979568481 -0.0438079982995986938
0.454596012830734253 0.46672898530960083 -0.04416700080037117
0.451923996210098267 0.466408014297485352 -0.0447629988193511963
0.449043005704879761 0.465321004390716553 -0.045662999153137207
0.445784986019134521 0.462859988212585449 -0.0471040010452270508
0.193722993135452271 0.461019009351730347 -0.093570999801158905
0.191725000739097595 0.463436990976333618 -0.0930999964475631714
0.189373001456260681 0.465135008096694946 -0.0929419994354248047
0.186720997095108032 0.466232985258102417 -0.0930450037121772766
0.183752000331878662 0.466704994440078735 -0.0934220030903816223
0.18030199408531189 0.466244995594024658 -0.0942080020904541016
0.175916999578475952 0.463977992534637451 -0.0957880020141601562
0.496547013521194458 0.426672011613845825 -0.0482910014688968658
0.49490201473236084 0.430961012840270996 -0.0471150018274784088
0.49286198616027832 0.433371990919113159 -0.0466560013592243195
0.49065101146697998 0.434974998235702515 -0.0465050004422664642
0.48831099271774292 0.435995012521743774 -0.0465780012309551239
0.485855013132095337 0.436495989561080933 -0.0468510016798973083
0.483274996280670166 0.436470001935958862 -0.0473259985446929932
0.480551004409790039 0.435833990573883057 -0.048037998378276825
0.477598011493682861 0.434248000383377075 -0.0491169989109039307
0.474022001028060913 0.430045008659362793 -0.0512080006301403046
0.466421991586685181 0.45253300666809082 -0.044858001172542572
0.465568006038665771 0.459533989429473877 -0.0426080003380775452
0.463712990283966064 0.462422013282775879 -0.0419510006904602051
0.461636006832122803 0.464399009943008423 -0.0416480004787445068
0.459392011165618896 0.465703994035720825 -0.0416060015559196472
0.457011997699737549 0.466473013162612915 -0.0417720004916191101
0.454493999481201172 0.466722995042800903 -0.0421420000493526459
0.451815992593765259 0.466374993324279785 -0.0427459999918937683
0.448927998542785645 0.46525999903678894 -0.0436520017683506012
0.445638000965118408 0.462673991918563843 -0.0451360009610652924
0.195169001817703247 0.457495003938674927 -0.0922399982810020447
0.193717002868652344 0.461033999919891357 -0.0912870019674301147
0.191716000437736511 0.463443994522094727 -0.090820997953414917
0.189364001154899597 0.465139001607894897 -0.0906649976968765259
0.186712995171546936 0.46623501181602478 -0.0907680019736289978
0.183743000030517578 0.466706007719039917 -0.0911440029740333557
0.180292993783950806 0.466241985559463501 -0.0919269993901252747
0.175906002521514893 0.463968992233276367 -0.0935019999742507935
0.494809985160827637 0.431079000234603882 -0.0450240001082420349
0.492763996124267578 0.433452010154724121 -0.0445809997618198395
0.490548014640808105 0.4350300133228302 -0.0444400012493133545
0.488204002380371094 0.436028003692626953 -0.0445210002362728119
0.485743999481201172 0.436507999897003174 -0.0448010005056858063
0.48315998911857605 0.436459004878997803 -0.0452819988131523132
0.480430006980895996 0.435797989368438721 -0.0460000000894069672
0.477459996938705444 0.434134989976882935 -0.0471040010452270508
0.473812013864517212 0.429627001285552979 -0.0493020005524158478
0.465499013662338257 0.459675014019012451 -0.0405259989202022552
0.463634997606277466 0.462520986795425415 -0.0398890003561973572
0.46155199408531189 0.464468985795974731 -0.0395979993045330048
0.459304004907608032 0.465750992298126221 -0.0395639985799789429
0.456918001174926758 0.466500014066696167 -0.039737999439239502
0.454391986131668091 0.466713011264801025 -0.0401199981570243835
0.451709002256393433 0.4663429856300354 -0.0407299995422363281
0.44881400465965271 0.465198993682861328 -0.0416419990360736847
0.193710997700691223 0.461048990488052368 -0.0890050008893013
0.191707000136375427 0.463450998067855835 -0.0885440036654472351
0.189355000853538513 0.46514400839805603 -0.0883890017867088318
0.186703994870185852 0.46623799204826355 -0.0884929969906806946
0.183734998106956482 0.466706991195678711 -0.0888670012354850769
0.180285006761550903 0.466239988803863525 -0.0896480008959770203
0.175896003842353821 0.463959991931915283 -0.0912180021405220032
0.496421992778778076 0.427197009325027466 -0.0439900010824203491
0.494717985391616821 0.431194007396697998 -0.0429349988698959351
0.492664992809295654 0.433533996343612671 -0.0425070002675056458
0.490444004535675049 0.435084998607635498 -0.0423769988119602203
0.488097012042999268 0.436060011386871338 -0.0424659997224807739
0.485632002353668213 0.436518013477325439 -0.0427520014345645905
0.48304399847984314 0.436448007822036743 -0.0432399995625019073
0.480309993028640747 0.435761004686355591 -0.043963998556137085
0.465429008007049561 0.459814995527267456 -0.0384470000863075256
0.463555991649627686 0.462619990110397339 -0.0378279983997344971
0.461466997861862183 0.464538007974624634 -0.0375499986112117767
0.459214985370635986 0.465799003839492798 -0.0375249981880187988
0.45682099461555481 0.466509997844696045 -0.03771200031042099
0.454290002584457397 0.46670299768447876 -0.0381000004708766937
0.451602011919021606 0.466309994459152222 -0.0387150011956691742
0.448700010776519775 0.465137988328933716 -0.0396340005099773407
0.1951570063829422 0.457531005144119263 -0.0876659974455833435
0.193705007433891296 0.461062997579574585 -0.0867239981889724731
0.191698998212814331 0.463458001613616943 -0.0862689986824989319
0.189346998929977417 0.465148001909255981 -0.0861160010099411011
0.186695992946624756 0.466241002082824707 -0.0862189978361129761
0.183726996183395386 0.466708004474639893 -0.0865920037031173706
0.180276006460189819 0.466237008571624756 -0.0873709991574287415
0.175885006785392761 0.463950991630554199 -0.0889360010623931885
0.494625985622406006 0.431308001279830933 -0.0408490002155303955
0.492567002773284912 0.433613985776901245 -0.0404350012540817261
0.490341007709503174 0.435140013694763184 -0.0403160005807876587
0.487989991903305054 0.436093002557754517 -0.04041299968957901
0.485520988702774048 0.436529010534286499 -0.0407049991190433502
0.482928991317749023 0.436435997486114502 -0.0411989986896514893
0.480188995599746704 0.435725003480911255 -0.041928999125957489
0.463477998971939087 0.462718993425369263 -0.0357690006494522095
0.46138298511505127 0.464607000350952148 -0.035503000020980835
0.459122002124786377 0.465833008289337158 -0.0354910008609294891
0.456723004579544067 0.466518998146057129 -0.0356869995594024658
0.454187989234924316 0.466693013906478882 -0.0360799990594387054
0.451494991779327393 0.466277986764907837 -0.0367010012269020081
0.448585987091064453 0.465077012777328491 -0.0376270003616809845
0.445197999477386475 0.462117999792098999 -0.0392329990863800049
0.193698003888130188 0.461077988147735596 -0.0844459980726242065
0.191689997911453247 0.463465005159378052 -0.0839959979057312012
0.189337998628616333 0.465153008699417114 -0.0838439986109733582
0.186686992645263672 0.466242998838424683 -0.0839470028877258301
0.18371899425983429 0.466708004474639893 -0.0843190029263496399
0.180267006158828735 0.466233998537063599 -0.0850960016250610352
0.175873994827270508 0.463943004608154297 -0.0866549983620643616
0.494533002376556396 0.431421995162963867 -0.0387649983167648315
0.492467999458312988 0.433694988489151001 -0.038364998996257782
0.490238010883331299 0.435194998979568481 -0.0382560007274150848
0.487883001565933228 0.436125010251998901 -0.0383599996566772461
0.485410004854202271 0.436540007591247559 -0.0386600010097026825
0.482814013957977295 0.436425000429153442 -0.0391589999198913574
0.480067998170852661 0.435683995485305786 -0.0398960001766681671
0.477046996355056763 0.4337959885597229 -0.0410690009593963623
0.466598004102706909 0.454964011907577515 -0.0357909984886646271
0.465290993452072144 0.460094988346099854 -0.0342940017580986023
0.463400006294250488 0.462817013263702393 -0.0337119996547698975
0.461299002170562744 0.464675992727279663 -0.0334579981863498688
0.45902898907661438 0.465862005949020386 -0.0334619991481304169
0.456625014543533325 0.466529011726379395 -0.0336639992892742157
0.454086005687713623 0.466683000326156616 -0.0340630002319812775
0.451388001441955566 0.466244995594024658 -0.034689001739025116
0.448471993207931519 0.465016007423400879 -0.0356209985911846161
0.19369100034236908 0.461091011762619019 -0.0821700021624565125
0.191681995987892151 0.46347200870513916 -0.0817240029573440552
0.189328998327255249 0.465157985687255859 -0.0815730020403862
0.18667900562286377 0.466244995594024658 -0.0816769972443580627
0.183711007237434387 0.466708987951278687 -0.0820479989051818848
0.180259004235267639 0.466232001781463623 -0.0828220024704933167
0.175863996148109436 0.463934004306793213 -0.0843759998679161072
0.492370009422302246 0.433775007724761963 -0.0362970009446144104
0.490135997533798218 0.435250014066696167 -0.0361969992518424988
0.487776011228561401 0.43615800142288208 -0.036309998482465744
0.485298991203308105 0.436551004648208618 -0.0366149991750717163
0.482699006795883179 0.436414003372192383 -0.0371210016310214996
0.47993999719619751 0.435615986585617065 -0.0378759987652301788
0.476909011602401733 0.433683007955551147 -0.0390589982271194458
0.466569006443023682 0.455273985862731934 -0.0336450003087520599
0.465222001075744629 0.460233986377716064 -0.0322199985384941101
0.46332201361656189 0.462915986776351929 -0.0316560007631778717
0.46121099591255188 0.464731991291046143 -0.031419999897480011
0.458934992551803589 0.465889990329742432 -0.0314339995384216309
0.456528007984161377 0.466538012027740479 -0.0316420011222362518
0.453983992338180542 0.466672986745834351 -0.0320460014045238495
0.45128101110458374 0.466212987899780273 -0.0326780006289482117
0.448357999324798584 0.464955002069473267 -0.0336159989237785339
0.191672995686531067 0.463479012250900269 -0.0794539973139762878
0.189320996403694153 0.465162009000778198 -0.0793050006031990051
0.186670005321502686 0.466248005628585815 -0.0794090032577514648
0.183703005313873291 0.466710001230239868 -0.0797780007123947144
0.180250003933906555 0.466228991746902466 -0.0805500000715255737
0.175852999091148376 0.463925004005432129 -0.0820989981293678284
0.494349002838134766 0.431650996208190918 -0.0346009992063045502
0.492271989583969116 0.433856010437011719 -0.0342300012707710266
0.490033000707626343 0.435304999351501465 -0.0341399982571601868
0.487668991088867188 0.436190009117126465 -0.0342600010335445404
0.485188990831375122 0.436562001705169678 -0.0345720015466213226
0.482582986354827881 0.436401993036270142 -0.0350840017199516296
0.479811996221542358 0.435546994209289551 -0.035856001079082489
0.476772010326385498 0.433569997549057007 -0.037050001323223114
0.466540008783340454 0.45558398962020874 -0.0315029993653297424
0.465153008699417114 0.460373014211654663 -0.0301489997655153275
0.463243991136550903 0.463014006614685059 -0.0296030007302761078
0.461122006177902222 0.46478000283241272 -0.0293869990855455399
0.458842009305953979 0.465918004512786865 -0.0294080004096031189
0.456429988145828247 0.466547995805740356 -0.0296209994703531265
0.453882992267608643 0.466663002967834473 -0.0300309993326663971
0.451173990964889526 0.466179996728897095 -0.0306679997593164444
0.191663995385169983 0.463485985994338989 -0.0771849974989891052
0.189311996102333069 0.465166985988616943 -0.0770379975438117981
0.186662003397941589 0.466250002384185791 -0.0771420001983642578
0.183695003390312195 0.46671101450920105 -0.0775099992752075195
0.180241003632545471 0.46622699499130249 -0.0782790035009384155
0.175843000411987305 0.463916987180709839 -0.0798230022192001343
0.489933997392654419 0.168217003345489502 -0.120794996619224548
0.492173999547958374 0.433937013149261475 -0.0321649983525276184
0.489930003881454468 0.43536001443862915 -0.0320850014686584473
0.487562000751495361 0.436223000288009644 -0.0322129987180233002
0.485078006982803345 0.436572998762130737 -0.0325310006737709045
0.482468008995056152 0.436390995979309082 -0.0330480001866817474
0.479685008525848389 0.43547898530960083 -0.033837001770734787
0.476633995771408081 0.433456987142562866 -0.0350430011749267578
0.466511994600296021 0.455893009901046753 -0.0293630007654428482
0.465081989765167236 0.460503995418548584 -0.0280820000916719437
0.463165998458862305 0.463111996650695801 -0.0275509990751743317
0.461032003164291382 0.464827001094818115 -0.027355000376701355
0.458748012781143188 0.465947002172470093 -0.0273829996585845947
0.456333011388778687 0.466558009386062622 -0.0276020001620054245
0.453781008720397949 0.466652989387512207 -0.028016999363899231
0.186653003096580505 0.466253012418746948 -0.0748770013451576233
0.183686003088951111 0.46671101450920105 -0.0752440020442008972
0.180233001708984375 0.466224014759063721 -0.0760100036859512329
0.175832003355026245 0.463907986879348755 -0.0775490030646324158
0.495276987552642822 0.164997994899749756 -0.118438996374607086
0.492592006921768188 0.166979998350143433 -0.118251003324985504
0.489784002304077148 0.168266996741294861 -0.118314996361732483
0.486871004104614258 0.168972998857498169 -0.118588000535964966
0.483853012323379517 0.169117003679275513 -0.119065999984741211
0.492076009511947632 0.434017002582550049 -0.0301019996404647827
0.489827990531921387 0.435414999723434448 -0.0300309993326663971
0.487455993890762329 0.436255007982254028 -0.0301660001277923584
0.48496699333190918 0.436583995819091797 -0.0304910000413656235
0.482353001832962036 0.436379998922348022 -0.0310130007565021515
0.479557991027832031 0.435411006212234497 -0.0318199992179870605
0.476496994495391846 0.433344006538391113 -0.0330360010266304016
0.466482013463973999 0.456198006868362427 -0.0272269994020462036
0.465011000633239746 0.460635006427764893 -0.0260170008987188339
0.463088005781173706 0.463207989931106567 -0.0255020000040531158
0.460943013429641724 0.464875012636184692 -0.0253240000456571579
0.458654999732971191 0.465974986553192139 -0.0253589991480112076
0.456236004829406738 0.466567009687423706 -0.0255839992314577103
0.453678995370864868 0.466643005609512329 -0.0260039996355772018
0.180224001407623291 0.466221004724502563 -0.0737430006265640259
0.494352012872695923 0.160604998469352722 -0.117554999887943268
0.49176400899887085 0.163187995553016663 -0.11715400218963623
0.488990992307662964 0.164704993367195129 -0.117136001586914062
0.486066997051239014 0.165390998125076294 -0.117417000234127045
0.483009010553359985 0.165360003709793091 -0.11795700341463089
0.491977989673614502 0.434096992015838623 -0.0280399993062019348
0.489724993705749512 0.435470014810562134 -0.0279789995402097702
0.487349003553390503 0.436286985874176025 -0.0281220003962516785
0.484856009483337402 0.436594992876052856 -0.0284519996494054794
0.482232987880706787 0.436345010995864868 -0.0289890002459287643
0.47942999005317688 0.435342997312545776 -0.0298040006309747696
0.47635999321937561 0.433232009410858154 -0.0310299992561340332
0.46645200252532959 0.456501007080078125 -0.0250950008630752563
0.464940011501312256 0.460765987634658813 -0.023954000324010849
0.463003009557723999 0.463277995586395264 -0.0234639998525381088
0.460853010416030884 0.464922994375228882 -0.0232950001955032349
0.4585610032081604 0.466003000736236572 -0.0233369991183280945
0.456138014793395996 0.466576993465423584 -0.0235680006444454193
0.453577995300292969 0.46663200855255127 -0.0239930003881454468
0.45085299015045166 0.466082990169525146 -0.0246459990739822388
0.496446013450622559 0.156058996915817261 -0.116186998784542084
0.494219005107879639 0.160762995481491089 -0.115032002329826355
0.491625010967254639 0.163303002715110779 -0.114647999405860901
0.488840013742446899 0.164749994874000549 -0.114655002951622009
0.48591199517250061 0.165406003594398499 -0.114945001900196075
0.482849985361099243 0.165343999862670898 -0.11549299955368042
0.479607999324798584 0.164353996515274048 -0.116374999284744263
0.49187999963760376 0.434177994728088379 -0.025979999452829361
0.489621996879577637 0.435525000095367432 -0.0259279999881982803
0.487242013216018677 0.43631899356842041 -0.0260780006647109985
0.484746009111404419 0.436605006456375122 -0.0264149997383356094
0.482111990451812744 0.436307996511459351 -0.0269659999758005142
0.47930300235748291 0.435274988412857056 -0.0277880001813173294
0.476222008466720581 0.433118999004364014 -0.029024999588727951
0.466421991586685181 0.456802010536193848 -0.0229649990797042847
0.464868992567062378 0.460896998643875122 -0.0218930002301931381
0.462918013334274292 0.463346987962722778 -0.0214280001819133759
0.460763990879058838 0.464971005916595459 -0.0212680008262395859
0.458467990159988403 0.4660319983959198 -0.0213159993290901184
0.456041008234024048 0.466585993766784668 -0.0215530004352331161
0.453476011753082275 0.466623008251190186 -0.0219829995185136795
0.450747013092041016 0.466051012277603149 -0.0226409994065761566
0.193638995289802551 0.461147010326385498 -0.0685580000281333923
0.183661997318267822 0.466713994741439819 -0.0684560015797615051
0.494085997343063354 0.160921007394790649 -0.112511001527309418
0.491486012935638428 0.163416996598243713 -0.112144999206066132
0.488689988851547241 0.164795994758605957 -0.112175002694129944
0.485758006572723389 0.165420994162559509 -0.112474001944065094
0.482690006494522095 0.165327996015548706 -0.113030999898910522
0.479434996843338013 0.164260998368263245 -0.113935999572277069
0.475874006748199463 0.161616995930671692 -0.115408003330230713
0.471689999103546143 0.155785992741584778 -0.118023999035358429
0.493892014026641846 0.432227998971939087 -0.0242199990898370743
0.491782009601593018 0.434258013963699341 -0.0239209998399019241
0.489520013332366943 0.435579001903533936 -0.0238790009170770645
0.487136006355285645 0.436352014541625977 -0.0240359995514154434
0.484632998704910278 0.43660399317741394 -0.0243839994072914124
0.481992006301879883 0.436271995306015015 -0.0249450001865625381
0.47917601466178894 0.435207009315490723 -0.0257740002125501633
0.476072013378143311 0.4329490065574646 -0.0270409993827342987
0.462834000587463379 0.463416993618011475 -0.0193930007517337799
0.46067500114440918 0.465018004179000854 -0.0192419998347759247
0.458375006914138794 0.466060012578964233 -0.0192970000207424164
0.4559440016746521 0.466596007347106934 -0.019540000706911087
0.453375011682510376 0.46661299467086792 -0.0199749991297721863
0.450639992952346802 0.466017991304397583 -0.0206369999796152115
0.447656005620956421 0.464515000581741333 -0.0216380003839731216
0.193733006715774536 0.448377013206481934 -0.070437997579574585
0.193731993436813354 0.454899996519088745 -0.0683149993419647217
0.193630993366241455 0.461156994104385376 -0.0662949979305267334
0.191621005535125732 0.463521987199783325 -0.0658700019121170044
0.189269006252288818 0.465189993381500244 -0.0657299980521202087
0.186619997024536133 0.466262996196746826 -0.0658349990844726562
0.183653995394706726 0.466715008020401001 -0.0661960020661354065
0.180197998881340027 0.466212987899780273 -0.0669519975781440735
0.175789996981620789 0.463872998952865601 -0.068470001220703125
-0.170471996068954468 0.468432992696762085 -0.126367002725601196
0.493954002857208252 0.161079004406929016 -0.109993003308773041
0.491344988346099854 0.163519993424415588 -0.109646998345851898
0.488539993762969971 0.164841994643211365 -0.109696999192237854
0.485603004693984985 0.165436998009681702 -0.110005997121334076
0.48253101110458374 0.165313005447387695 -0.110569998621940613
0.479261994361877441 0.164168998599052429 -0.111497998237609863
0.475672006607055664 0.16136699914932251 -0.113018997013568878
0.47020798921585083 0.148793995380401611 -0.118023999035358429
0.491685003042221069 0.434338003396987915 -0.0218640007078647614
0.489417999982833862 0.435633987188339233 -0.0218310002237558365
0.487028986215591431 0.436381012201309204 -0.0219969991594552994
0.484517008066177368 0.436592996120452881 -0.0223570000380277634
0.48187100887298584 0.436235010623931885 -0.0229240003973245621
0.479048997163772583 0.435139000415802002 -0.0237610004842281342
0.475915014743804932 0.432750999927520752 -0.0250690001994371414
0.460586011409759521 0.465065985918045044 -0.0172169990837574005
0.458281993865966797 0.466087996959686279 -0.0172799993306398392
0.455846995115280151 0.466605991125106812 -0.0175269991159439087
0.453274011611938477 0.466603010892868042 -0.0179670006036758423
0.450533002614974976 0.465986013412475586 -0.0186349991708993912
0.193731993436813354 0.448408991098403931 -0.068148002028465271
0.193731993436813354 0.454928994178771973 -0.0660360008478164673
0.193623006343841553 0.461167991161346436 -0.064034000039100647
0.191613003611564636 0.463528990745544434 -0.0636119991540908813
0.189261004328727722 0.465195000171661377 -0.0634730011224746704
0.186610996723175049 0.466266006231307983 -0.0635790005326271057
0.18364599347114563 0.466715991497039795 -0.0639389976859092712
0.180188998579978943 0.466210991144180298 -0.0646919980645179749
0.175778999924659729 0.463863998651504517 -0.0662050023674964905
-0.165569007396697998 0.46425899863243103 -0.124323002994060516
-0.167763993144035339 0.466571986675262451 -0.123948000371456146
-0.170377001166343689 0.468376010656356812 -0.123810000717639923
-0.173420995473861694 0.469659000635147095 -0.123914003372192383
-0.176997005939483643 0.470310986042022705 -0.124312996864318848
0.496138006448745728 0.157087996602058411 -0.108419999480247498
0.493820995092391968 0.161236003041267395 -0.107476003468036652
0.491198986768722534 0.163597002625465393 -0.107160001993179321
0.4883899986743927 0.164886996150016785 -0.107220999896526337
0.485448986291885376 0.165452003479003906 -0.107538998126983643
0.482371002435684204 0.165297001600265503 -0.108111001551151276
0.47908899188041687 0.164076000452041626 -0.10906200110912323
0.475468993186950684 0.161117002367973328 -0.11062999814748764
0.491587013006210327 0.434417992830276489 -0.0198090001940727234
0.489315986633300781 0.435689002275466919 -0.0197850000113248825
0.486918002367019653 0.436392009258270264 -0.0199660006910562515
0.484402000904083252 0.43658098578453064 -0.0203319992870092392
0.481750994920730591 0.436197996139526367 -0.0209049992263317108
0.478922009468078613 0.435070991516113281 -0.0217489991337060928
0.475757986307144165 0.432552993297576904 -0.0230979993939399719
0.464652985334396362 0.461270987987518311 -0.0157280005514621735
0.460496991872787476 0.465113013982772827 -0.015194999985396862
0.458189010620117188 0.466116011142730713 -0.0152629995718598366
0.455749988555908203 0.466614991426467896 -0.0155170001089572906
0.453171998262405396 0.466592997312545776 -0.0159610006958246231
0.450426995754241943 0.465954005718231201 -0.0166330002248287201
0.193731993436813354 0.448440998792648315 -0.0658589974045753479
0.193731993436813354 0.454959005117416382 -0.0637589991092681885
0.193615004420280457 0.461178004741668701 -0.0617740005254745483
0.191604003310203552 0.463535994291305542 -0.0613549984991550446
0.189252004027366638 0.465198993682861328 -0.0612189993262290955
0.186602994799613953 0.466268986463546753 -0.061324000358581543
0.183638006448745728 0.466715991497039795 -0.0616829991340637207
0.180180996656417847 0.466208010911941528 -0.0624339990317821503
0.175769001245498657 0.463856011629104614 -0.0639410018920898438
-0.165498003363609314 0.464175999164581299 -0.121777996420860291
-0.167685002088546753 0.466497987508773804 -0.121400997042655945
-0.17028200626373291 0.46831899881362915 -0.121255002915859222
-0.173308998346328735 0.469621002674102783 -0.121348999440670013
-0.176863998174667358 0.470295995473861694 -0.121734999120235443
0.496035993099212646 0.157429993152618408 -0.105835996568202972
0.493689000606536865 0.161399006843566895 -0.10496000200510025
0.491053998470306396 0.163674995303153992 -0.10467500239610672
0.48824000358581543 0.164932996034622192 -0.104746997356414795
0.48529401421546936 0.165466994047164917 -0.105074003338813782
0.482207000255584717 0.165252000093460083 -0.105663999915122986
0.47891700267791748 0.163984000682830811 -0.106625996530056
0.475266993045806885 0.160867005586624146 -0.10824199765920639
0.493618011474609375 0.432574003934860229 -0.01801300048828125
0.491488993167877197 0.434498012065887451 -0.0177560001611709595
0.489208996295928955 0.435723006725311279 -0.0177480001002550125
0.486806988716125488 0.436401993036270142 -0.0179360006004571915
0.484286993741989136 0.43656998872756958 -0.0183080006390810013
0.481631010770797729 0.436161994934082031 -0.0188880003988742828
0.478794008493423462 0.435003012418746948 -0.0197379998862743378
0.475600987672805786 0.432354986667633057 -0.0211270004510879517
0.466212987899780273 0.457644999027252197 -0.01460300013422966
0.464574992656707764 0.461367994546890259 -0.013686000369489193
0.462579995393753052 0.463625013828277588 -0.0132990004494786263
0.460408002138137817 0.465160995721817017 -0.0131729999557137489
0.45809599757194519 0.46614500880241394 -0.0132489996030926704
0.455653011798858643 0.466625005006790161 -0.013507000170648098
0.453070998191833496 0.466583013534545898 -0.0139570003375411034
0.450320988893508911 0.465921998023986816 -0.0146329998970031738
0.193731993436813354 0.4484730064868927 -0.0635719969868659973
0.195091992616653442 0.457751989364624023 -0.0603669993579387665
0.19360700249671936 0.461187988519668579 -0.0595160014927387238
0.191596001386642456 0.46354299783706665 -0.0591010004281997681
0.189243003726005554 0.465204000473022461 -0.0589659996330738068
0.186594992876052856 0.466271013021469116 -0.0590710006654262543
0.183630004525184631 0.466717004776000977 -0.0594290010631084442
0.180171996355056763 0.466205000877380371 -0.0601769983768463135
0.175758004188537598 0.46384701132774353 -0.0616789981722831726
-0.163711994886398315 0.461189985275268555 -0.119874998927116394
-0.165434002876281738 0.464085996150970459 -0.119237996637821198
-0.16760699450969696 0.466423004865646362 -0.118854999542236328
-0.170187994837760925 0.468261986970901489 -0.11870100349187851
-0.173197001218795776 0.469583004713058472 -0.118785999715328217
-0.17673000693321228 0.470281004905700684 -0.119158998131752014
-0.181088000535964966 0.470007002353668213 -0.119983002543449402
0.495934009552001953 0.157771006226539612 -0.103256002068519592
0.493557989597320557 0.161565005779266357 -0.102444998919963837
0.490909010171890259 0.163753002882003784 -0.102191999554634094
0.488090008497238159 0.164977997541427612 -0.102274999022483826
0.485139995813369751 0.165481999516487122 -0.102609999477863312
0.482042014598846436 0.165202006697654724 -0.103220000863075256
0.478744000196456909 0.163892000913619995 -0.104192003607749939
0.475066006183624268 0.16061699390411377 -0.105855002999305725
0.491391986608505249 0.434578001499176025 -0.0157040003687143326
0.489102005958557129 0.435755014419555664 -0.0157130006700754166
0.486696004867553711 0.436414003372192383 -0.0159079991281032562
0.48417198657989502 0.436558991670608521 -0.0162850003689527512
0.48151099681854248 0.436125993728637695 -0.0168709997087717056
0.478668004274368286 0.434935003519058228 -0.0177289992570877075
0.475443989038467407 0.432157009840011597 -0.0191569998860359192
0.466156989336013794 0.457841008901596069 -0.0125230001285672188
0.464495986700057983 0.461466014385223389 -0.0116459997370839119
0.462494999170303345 0.463694006204605103 -0.0112709999084472656
0.460319012403488159 0.465207993984222412 -0.0111539997160434723
0.458003014326095581 0.466172993183135986 -0.0112349996343255043
0.455556005239486694 0.466634005308151245 -0.0114989997819066048
0.452969998121261597 0.466572999954223633 -0.0119540002197027206
0.450213998556137085 0.465889006853103638 -0.0126350000500679016
0.447158008813858032 0.464105993509292603 -0.0137170003727078438
0.194867998361587524 0.450827986001968384 -0.0603559985756874084
0.195086002349853516 0.457771003246307373 -0.058104000985622406
0.193598002195358276 0.461198985576629639 -0.0572599992156028748
0.191587001085281372 0.463550001382827759 -0.0568480007350444794
0.189235001802444458 0.465207993984222412 -0.0567139983177185059
0.186585992574691772 0.466273993253707886 -0.0568200014531612396
0.183622002601623535 0.466717988252639771 -0.0571760013699531555
0.180162996053695679 0.466203004121780396 -0.0579219982028007507
0.175748005509376526 0.463838011026382446 -0.0594180002808570862
-0.164885997772216797 0.459589004516601562 -0.118023999035358429
-0.16775299608707428 0.461098998785018921 -0.118023999035358429
-0.169847995042800903 0.463541001081466675 -0.117596998810768127
-0.17246699333190918 0.465344995260238647 -0.117461003363132477
-0.175623998045921326 0.466500997543334961 -0.117623001337051392
-0.17921699583530426 0.467137992382049561 -0.118023999035358429
0.495824992656707764 0.158071994781494141 -0.100693002343177795
0.493427008390426636 0.161730006337165833 -0.0999320000410079956
0.490763992071151733 0.163829997181892395 -0.099711000919342041
0.487940996885299683 0.165022999048233032 -0.0998039990663528442
0.484986007213592529 0.165497004985809326 -0.100147999823093414
0.481875985860824585 0.165151998400688171 -0.100777998566627502
0.47857201099395752 0.16380000114440918 -0.101759001612663269
0.474864006042480469 0.160366997122764587 -0.103468999266624451
0.49343600869178772 0.43280300498008728 -0.0138839995488524437
0.491288989782333374 0.434634000062942505 -0.0136620001867413521
0.488994985818862915 0.435788005590438843 -0.0136799998581409454
0.486584991216659546 0.436423987150192261 -0.0138809997588396072
0.484057009220123291 0.436547994613647461 -0.0142639996483922005
0.481389999389648438 0.436089009046554565 -0.0148560004308819771
0.478540986776351929 0.434868007898330688 -0.0157200004905462265
0.475288987159729004 0.431964993476867676 -0.0171850007027387619
0.466100007295608521 0.458029001951217651 -0.010448000393807888
0.464417010545730591 0.461562991142272949 -0.00960700027644634247
0.462410986423492432 0.463764011859893799 -0.00924499984830617905
0.460229992866516113 0.465256005525588989 -0.00913500040769577026
0.457910001277923584 0.46620100736618042 -0.00922300014644861221
0.455458998680114746 0.466643989086151123 -0.00949299987405538559
0.452868998050689697 0.466562986373901367 -0.00995200034230947495
0.450107991695404053 0.465856999158859253 -0.0106370002031326294
0.447034001350402832 0.464004009962081909 -0.0117389997467398643
0.194891005754470825 0.450906991958618164 -0.0580589994788169861
0.195080995559692383 0.457789987325668335 -0.0558420009911060333
0.19359000027179718 0.461208999156951904 -0.0550060011446475983
0.191578999161720276 0.463557004928588867 -0.0545970015227794647
0.189226001501083374 0.465213000774383545 -0.0544649995863437653
0.18657800555229187 0.466275990009307861 -0.0545700006186962128
0.183614000678062439 0.466719001531600952 -0.0549249984323978424
0.180154994130134583 0.466199994087219238 -0.0556680001318454742
-0.166326001286506653 0.457664012908935547 -0.116314001381397247
-0.167716994881629944 0.460974007844924927 -0.11549600213766098
-0.169764995574951172 0.463472992181777954 -0.115046001970767975
-0.172369003295898438 0.465292990207672119 -0.114903002977371216
-0.175505995750427246 0.466470003128051758 -0.115053996443748474
-0.179544001817703247 0.466574013233184814 -0.115695998072624207
0.495705008506774902 0.158309996128082275 -0.0981540009379386902
0.493297010660171509 0.161895006895065308 -0.0974219962954521179
0.490619003772735596 0.1639070063829422 -0.0972319990396499634
0.487791001796722412 0.16506899893283844 -0.0973360016942024231
0.48483198881149292 0.165512993931770325 -0.0976879969239234924
0.481711000204086304 0.165102005004882812 -0.0983360037207603455
0.478399008512496948 0.163707002997398376 -0.0993279963731765747
0.47466200590133667 0.160117000341415405 -0.101083002984523773
0.493344992399215698 0.432918012142181396 -0.0118230003863573074
0.491185992956161499 0.434688985347747803 -0.011621999554336071
0.488887995481491089 0.435820013284683228 -0.0116469999775290489
0.486474007368087769 0.436435014009475708 -0.0118549996986985207
0.483940988779067993 0.436536014080047607 -0.0122440000995993614
0.481269985437393188 0.436053007841110229 -0.0128410002216696739
0.478413999080657959 0.434799998998641968 -0.0137120001018047333
0.475134998559951782 0.431778997182846069 -0.015212000347673893
0.466042011976242065 0.458216995000839233 -0.00837500020861625671
0.464338988065719604 0.461661010980606079 -0.00757100014016032219
0.462327003479003906 0.463833004236221313 -0.00722000002861022949
0.460141003131866455 0.465303987264633179 -0.00711899995803833008
0.457816988229751587 0.466228991746902466 -0.00721300020813941956
0.455363005399703979 0.466652989387512207 -0.00748699996620416641
0.452767997980117798 0.466553002595901489 -0.00795099977403879166
0.450002014636993408 0.465824991464614868 -0.00864099990576505661
0.446909993886947632 0.463901996612548828 -0.00976200029253959656
0.194912999868392944 0.450985997915267944 -0.0557640008628368378
0.195076003670692444 0.457809001207351685 -0.0535820014774799347
0.193582996726036072 0.461221009492874146 -0.0527530014514923096
0.191569998860359192 0.463564008474349976 -0.0523479990661144257
0.189217999577522278 0.465216994285583496 -0.0522169992327690125
0.186569005250930786 0.466279000043869019 -0.05232200026512146
0.183605998754501343 0.466720014810562134 -0.0526759997010231018
0.180145993828773499 0.466197997331619263 -0.0534159988164901733
-0.168182000517845154 0.445111006498336792 -0.118023999035358429
-0.166095003485679626 0.452748000621795654 -0.115264996886253357
-0.166288003325462341 0.457542985677719116 -0.113783001899719238
-0.167660996317863464 0.460873991250991821 -0.112958997488021851
-0.169680997729301453 0.463403999805450439 -0.11249600350856781
-0.172269999980926514 0.465240001678466797 -0.11234699934720993
-0.175392001867294312 0.466434985399246216 -0.112488999962806702
-0.17938600480556488 0.466589987277984619 -0.113104000687599182
0.493162989616394043 0.162040993571281433 -0.0949200019240379333
0.49047398567199707 0.163984999060630798 -0.0947540029883384705
0.487641990184783936 0.16511400043964386 -0.094867996871471405
0.484676986932754517 0.165524005889892578 -0.0952299982309341431
0.481546014547348022 0.16505199670791626 -0.0958969965577125549
0.478226989507675171 0.163615003228187561 -0.0968979969620704651
0.474440008401870728 0.159758999943733215 -0.098736003041267395
0.495216995477676392 0.430341005325317383 -0.0102829998359084129
0.493254989385604858 0.433032989501953125 -0.00976200029253959656
0.491084009408950806 0.434744000434875488 -0.00958400033414363861
0.488781988620758057 0.435853004455566406 -0.00961699988692998886
0.486364006996154785 0.436446011066436768 -0.00982999987900257111
0.483826994895935059 0.43652498722076416 -0.0102260001003742218
0.481150001287460327 0.436015993356704712 -0.0108279995620250702
0.478287011384963989 0.434731990098953247 -0.0117060001939535141
0.474981009960174561 0.431594014167785645 -0.013238999992609024
0.465985000133514404 0.458404004573822021 -0.00630400003865361214
0.464260995388031006 0.46175798773765564 -0.00553599977865815163
0.462242990732192993 0.463901996612548828 -0.00519599998369812965
0.460052013397216797 0.465350985527038574 -0.00510400021448731422
0.457724004983901978 0.466257005929946899 -0.00520400004461407661
0.455265998840332031 0.466663002967834473 -0.00548399984836578369
0.452666997909545898 0.466542989015579224 -0.00595200015231966972
0.449891000986099243 0.465773999691009521 -0.00665300013497471809
0.446785986423492432 0.463800013065338135 -0.00778699992224574089
0.194936007261276245 0.451063990592956543 -0.053470999002456665
0.195070996880531311 0.457827985286712646 -0.0513239987194538116
0.193574994802474976 0.461232006549835205 -0.0505019985139369965
0.191560998558998108 0.463571012020111084 -0.0500999987125396729
0.189208999276161194 0.465222001075744629 -0.0499709993600845337
0.18656100332736969 0.466280996799468994 -0.0500760003924369812
0.183597996830940247 0.466720014810562134 -0.0504290014505386353
0.180138006806373596 0.466194987297058105 -0.0511660017073154449
-0.166113004088401794 0.452558994293212891 -0.112756997346878052
-0.166251003742218018 0.457421004772186279 -0.111253000795841217
-0.167604997754096985 0.460772991180419922 -0.110423997044563293
-0.169597998261451721 0.463335990905761719 -0.109948001801967621
-0.172171995043754578 0.465187996625900269 -0.109792999923229218
-0.175276994705200195 0.466399997472763062 -0.109926000237464905
0.493023008108139038 0.162155002355575562 -0.0924310013651847839
0.490330010652542114 0.164061993360519409 -0.0922790020704269409
0.487491995096206665 0.16515900194644928 -0.0924030020833015442
0.484517991542816162 0.165508002042770386 -0.092784002423286438
0.481380999088287354 0.165002003312110901 -0.093459002673625946
0.4780539870262146 0.163523003458976746 -0.0944690033793449402
0.474200993776321411 0.159317001700401306 -0.0964180007576942444
0.493160009384155273 0.433127999305725098 -0.00771099980920553207
0.490981012582778931 0.434798002243041992 -0.00754800019785761833
0.48867499828338623 0.435885012149810791 -0.00758800003677606583
0.48625299334526062 0.436457008123397827 -0.00780799984931945801
0.483711987733840942 0.436513006687164307 -0.00820800010114908218
0.481029987335205078 0.435979992151260376 -0.00881700031459331512
0.478161007165908813 0.434664011001586914 -0.00970000028610229492
0.474826991558074951 0.43140798807144165 -0.0112669998779892921
0.465927004814147949 0.45859101414680481 -0.00423600012436509132
0.464181989431381226 0.461854994297027588 -0.00350299989804625511
0.462157994508743286 0.463970988988876343 -0.00317499996162950993
0.459964007139205933 0.465398013591766357 -0.00309000001288950443
0.457632005214691162 0.466284990310668945 -0.00319699989631772041
0.455168992280960083 0.466672003269195557 -0.00348099996335804462
0.452565997838973999 0.466533005237579346 -0.00395300006493926048
0.449777007102966309 0.465712994337081909 -0.00466899992898106575
0.446662008762359619 0.463699012994766235 -0.00581200001761317253
0.194958999752998352 0.451142996549606323 -0.0511800013482570648
0.195066004991531372 0.457846999168395996 -0.0490670017898082733
0.193568006157875061 0.461243003606796265 -0.0482520014047622681
0.191552996635437012 0.463577985763549805 -0.0478539988398551941
0.189200997352600098 0.46522599458694458 -0.0477260015904903412
0.186553001403808594 0.466284006834030151 -0.0478320010006427765
0.183588996529579163 0.466720998287200928 -0.0481830015778541565
0.180129006505012512 0.466192007064819336 -0.0489180013537406921
0.175705999135971069 0.463804006576538086 -0.0503930002450942993
-0.166131004691123962 0.452371001243591309 -0.110251002013683319
-0.166216000914573669 0.457296013832092285 -0.108726002275943756
-0.167548999190330505 0.460673004388809204 -0.107890002429485321
-0.16951499879360199 0.463266998529434204 -0.107403002679347992
-0.172074005007743835 0.465135008096694946 -0.107239998877048492
-0.175163000822067261 0.466365993022918701 -0.107363998889923096
0.492884010076522827 0.162269994616508484 -0.0899450033903121948
0.490184992551803589 0.164139002561569214 -0.0898049995303153992
0.487343013286590576 0.165205001831054688 -0.089939996600151062
0.484358012676239014 0.165492996573448181 -0.0903389975428581238
0.481216013431549072 0.164951995015144348 -0.091021999716758728
0.477874010801315308 0.163389995694160461 -0.092055000364780426
0.473957985639572144 0.158848002552986145 -0.0941089987754821777
0.493061989545822144 0.433207988739013672 -0.00566599983721971512
0.490877985954284668 0.43485298752784729 -0.00551200006157159805
0.488568007946014404 0.435916990041732788 -0.00555999996140599251
0.486142009496688843 0.436468005180358887 -0.00578599981963634491
0.483597010374069214 0.436502009630203247 -0.00619200011715292931
0.480910003185272217 0.435943007469177246 -0.00680600013583898544
0.478033989667892456 0.434596002101898193 -0.00769599992781877518
0.474673002958297729 0.431221991777420044 -0.00929600000381469727
0.465869992971420288 0.45877799391746521 -0.00216899998486042023
0.464103996753692627 0.461952000856399536 -0.00147100002504885197
0.462074011564254761 0.464040011167526245 -0.00115499994717538357
0.459874987602233887 0.465445995330810547 -0.00107799994293600321
0.457538992166519165 0.466313004493713379 -0.00119099998846650124
0.455072999000549316 0.466681987047195435 -0.00147999997716397047
0.4524649977684021 0.46652299165725708 -0.00195700000040233135
0.449663013219833374 0.465653002262115479 -0.00268599996343255043
0.446536988019943237 0.463596999645233154 -0.00383799988776445389
0.194980993866920471 0.451220989227294922 -0.0488910004496574402
0.195060998201370239 0.457866013050079346 -0.0468120016157627106
0.193560004234313965 0.461255013942718506 -0.0460040010511875153
0.191543996334075928 0.463584989309310913 -0.0456099994480609894
0.189191997051239014 0.465231001377105713 -0.0454830005764961243
0.18654400110244751 0.466286003589630127 -0.0455889999866485596
0.183580994606018066 0.466722011566162109 -0.0459389984607696533
0.180120006203651428 0.46619001030921936 -0.0466709993779659271
0.17569500207901001 0.463795006275177002 -0.0481409989297389984
-0.166203007102012634 0.452116012573242188 -0.10777600109577179
-0.166180998086929321 0.457172006368637085 -0.106201000511646271
-0.167493999004364014 0.460572987794876099 -0.105357997119426727
-0.169431999325752258 0.463198006153106689 -0.104859001934528351
-0.171976000070571899 0.465083003044128418 -0.104690000414848328
-0.175047993659973145 0.466331005096435547 -0.104805000126361847
0.490040004253387451 0.164216995239257812 -0.0873330011963844299
0.4871940016746521 0.165250003337860107 -0.0874779969453811646
0.484198987483978271 0.165476992726325989 -0.0878959968686103821
0.481050997972488403 0.164902001619338989 -0.0885870009660720825
0.477692008018493652 0.163240000605583191 -0.0896480008959770203
0.490776002407073975 0.434908002614974976 -0.00347899994812905788
0.488462001085281372 0.435950011014938354 -0.00353399990126490593
0.486032009124755859 0.436479002237319946 -0.00376600003801286221
0.483482003211975098 0.436491012573242188 -0.00417800014838576317
0.480791002511978149 0.43590700626373291 -0.0047969999723136425
0.477899998426437378 0.434495002031326294 -0.0057049999013543129
0.474496990442276001 0.430940002202987671 -0.00735899992287158966
0.465813010931015015 0.458965003490447998 -0.000104999999166466296
0.464026004076004028 0.462049990892410278 0.000557999999728053808
0.461989998817443848 0.46410900354385376 0.000864000001456588507
0.45978701114654541 0.465492993593215942 0.000933000002987682819
0.45744699239730835 0.466340988874435425 0.000814000028185546398
0.454975992441177368 0.466690987348556519 0.000520000001415610313
0.4523639976978302 0.466513007879257202 3.89999986509792507e-05
0.449550002813339233 0.465591996908187866 -0.000705000013113021851
0.446413993835449219 0.463494986295700073 -0.00186499999836087227
0.195004001259803772 0.451299011707305908 -0.0466049984097480774
0.1950560063123703 0.457884997129440308 -0.0445589981973171234
0.193552002310752869 0.461266010999679565 -0.0437580011785030365
