ply
format ascii 1.0
element vertex 744
property float x
property float y
property float z
end_header
0.502767980098724365 -0.204808995127677917 0.0377830006182193756
0.502768993377685547 -0.199852004647254944 0.0377079993486404419
0.502768993377685547 -0.194916993379592896 0.0376340001821517944
0.502768993377685547 -0.190002992749214172 0.037560001015663147
0.502768993377685547 -0.185109004378318787 0.0374860018491744995
0.502768993377685547 -0.180236995220184326 0.0374130010604858398
0.502768993377685547 -0.175384998321533203 0.0373400002717971802
0.502768993377685547 -0.170553997159004211 0.0372669994831085205
0.502768993377685547 -0.165742993354797363 0.0371939986944198608
0.502768993377685547 -0.16095300018787384 0.0371220000088214874
0.502768993377685547 -0.156182006001472473 0.037050001323223114
0.502767980098724365 -0.151431992650032043 0.0369790010154247284
0.502768993377685547 -0.146700993180274963 0.0369080007076263428
0.502767980098724365 -0.141991004347801208 0.0368370003998279572
0.502768993377685547 -0.137299999594688416 0.0367660000920295715
0.502768993377685547 -0.132627993822097778 0.0366959981620311737
0.502768993377685547 -0.127976000308990479 0.0366259999573230743
0.502768993377685547 -0.123343996703624725 0.036556001752614975
0.502768993377685547 -0.118730001151561737 0.0364859998226165771
0.502768993377685547 -0.114136002957820892 0.0364169999957084656
0.502767980098724365 -0.109559997916221619 0.036348000168800354
0.502768993377685547 -0.105002999305725098 0.0362790003418922424
0.502768993377685547 -0.100464999675750732 0.0362109988927841187
0.502768993377685547 -0.0959459990262985229 0.0361430011689662933
0.502768993377685547 -0.0914449989795684814 0.0360749997198581696
0.502768993377685547 -0.0869619995355606079 0.036008000373840332
0.502768993377685547 -0.0824979990720748901 0.0359399989247322083
0.502768993377685547 -0.0780510008335113525 0.0358729995787143707
0.502768993377685547 -0.0736239999532699585 0.035806998610496521
0.502768993377685547 -0.0692130029201507568 0.0357399992644786835
0.502768993377685547 -0.064820997416973114 0.0356739982962608337
0.502768993377685547 -0.0604460015892982483 0.0356080010533332825
0.502768993377685547 -0.0560889989137649536 0.0355429984629154205
0.502768993377685547 -0.0517489984631538391 0.0354770012199878693
0.502767980098724365 -0.0474269986152648926 0.0354119986295700073
0.502768993377685547 -0.0431220009922981262 0.0353469997644424438
0.502768993377685547 -0.0388339981436729431 0.0352829992771148682
0.502768993377685547 -0.0345639996230602264 0.0352180004119873047
0.502768993377685547 -0.0303099993616342545 0.035153999924659729
0.502768993377685547 -0.0260729994624853134 0.0350899994373321533
0.502768993377685547 -0.0218529999256134033 0.0350270010530948639
0.502767980098724365 -0.0176500007510185242 0.034963998943567276
0.502767980098724365 -0.0134629998356103897 0.0349010005593299866
0.502768993377685547 -0.00929199997335672379 0.0348379984498023987
0.502768993377685547 -0.0051380000077188015 0.0347750000655651093
0.502768993377685547 -0.00100000004749745131 0.0347130000591278076
0.502767980098724365 0.00312100001610815525 0.034651000052690506
0.502768993377685547 0.00722600007429718971 0.0345890000462532043
0.502768993377685547 0.0113159995526075363 0.0345270000398159027
0.502768993377685547 0.0153890000656247139 0.0344659984111785889
0.502768993377685547 0.0194470006972551346 0.0344050005078315735
0.502767980098724365 0.0234890002757310867 0.0343439988791942596
0.502768993377685547 0.027514999732375145 0.0342830009758472443
0.502768993377685547 0.0315259993076324463 0.0342230014503002167
0.502768993377685547 0.0355219990015029907 0.0341629981994628906
0.502768993377685547 0.0395019985735416412 0.034102998673915863
0.502768993377685547 0.0434670001268386841 0.0340429991483688354
0.502768993377685547 0.047416001558303833 0.0339829996228218079
0.502768993377685547 0.0513500012457370758 0.0339239984750747681
0.502768993377685547 0.0552700012922286987 0.0338650010526180267
0.502767980098724365 0.0591740012168884277 0.0338059999048709869
0.502768993377685547 0.0630640015006065369 0.0337480008602142334
0.502768993377685547 0.0669389963150024414 0.0336889997124671936
0.502768993377685547 0.0707990005612373352 0.0336310006678104401
0.502768993377685547 0.0746449977159500122 0.0335730016231536865
0.502768993377685547 0.0784759968519210815 0.0335160009562969208
0.502768993377685547 0.082292996346950531 0.0334579981863498688
0.502768993377685547 0.0860949978232383728 0.0334010012447834015
0.502768993377685547 0.0898829996585845947 0.0333440005779266357
0.502768993377685547 0.0936570018529891968 0.03328699991106987
0.502768993377685547 0.097416996955871582 0.0332299992442131042
0.502768993377685547 0.101162999868392944 0.0331740006804466248
0.502768993377685547 0.104895003139972687 0.0331179983913898468
0.502768993377685547 0.108612999320030212 0.0330619998276233673
0.502768993377685547 0.112317003309726715 0.0330060012638568878
0.502767980098724365 0.116007000207901001 0.0329499989748001099
0.502768993377685547 0.119684003293514252 0.0328949987888336182
0.502768993377685547 0.123347997665405273 0.0328399986028671265
0.502768993377685547 0.126998007297515869 0.0327849984169006348
0.502768993377685547 0.130633994936943054 0.0327299982309341431
0.502768993377685547 0.134257003664970398 0.0326750017702579498
0.502768993377685547 0.137867003679275513 0.0326209999620914459
0.502768993377685547 0.141462996602058411 0.032566998153924942
0.502768993377685547 0.145046994090080261 0.0325130000710487366
0.502768993377685547 0.148616999387741089 0.0324589982628822327
0.502768993377685547 0.152174994349479675 0.0324050001800060272
0.502768993377685547 0.155718997120857239 0.0323520004749298096
0.502768993377685547 0.159251004457473755 0.0322990007698535919
0.502768993377685547 0.162770003080368042 0.0322460010647773743
0.502767980098724365 0.1662759929895401 0.0321930013597011566
0.502768993377685547 0.169770002365112305 0.032140001654624939
0.502768993377685547 0.17325100302696228 0.0320880003273487091
0.502768993377685547 0.176718994975090027 0.0320359990000724792
0.502768993377685547 0.180176004767417908 0.0319840013980865479
0.502768993377685547 0.183618992567062378 0.031932000070810318
0.502768993377685547 0.187050998210906982 0.0318799987435340881
0.502768993377685547 0.190469995141029358 0.0318289995193481445
0.502768993377685547 0.193876996636390686 0.0317769981920719147
0.502768993377685547 0.197272002696990967 0.0317259989678859711
0.502768993377685547 0.200654998421669006 0.0316749997437000275
0.502768993377685547 0.204025998711585999 0.0316240005195140839
0.502768993377685547 0.207385003566741943 0.0315739996731281281
0.502768993377685547 0.210731998085975647 0.0315230004489421844
0.502768993377685547 0.214067995548248291 0.0314729996025562286
0.502768993377685547 0.2173909991979599 0.0314229987561702728
0.502768993377685547 0.220703005790710449 0.0313730016350746155
0.502768993377685547 0.224004000425338745 0.0313230007886886597
0.502768993377685547 0.227292999625205994 0.0312739983201026917
0.502768993377685547 0.230570003390312195 0.0312239993363618851
0.502768993377685547 0.233835995197296143 0.0311750005930662155
0.502768993377685547 0.237091004848480225 0.0311259999871253967
0.502768993377685547 0.240334004163742065 0.0310769993811845779
0.502768993377685547 0.243566006422042847 0.0310290008783340454
0.502768993377685547 0.246786996722221375 0.0309800002723932266
0.502768993377685547 0.249997004866600037 0.0309319999068975449
0.502768993377685547 0.253196001052856445 0.0308839995414018631
0.502768993377685547 0.256383985280990601 0.0308359991759061813
0.502767980098724365 0.259559988975524902 0.0307880006730556488
0.502768993377685547 0.262726008892059326 0.030740000307559967
0.502768993377685547 0.265881001949310303 0.0306930001825094223
0.502768993377685547 0.269026011228561401 0.0306449998170137405
0.502768993377685547 0.272159010171890259 0.0305979996919631958
0.502768993377685547 0.275281995534896851 0.0305509995669126511
0.502768993377685547 0.278394997119903564 0.0305039994418621063
0.502768993377685547 0.281495988368988037 0.0304569993168115616
0.502768993377685547 0.284588009119033813 0.0304109994322061539
0.502768993377685547 0.287667989730834961 0.0303639993071556091
0.502768993377685547 0.290738999843597412 0.0303179994225502014
0.502768993377685547 0.293799012899398804 0.0302719995379447937
0.502768993377685547 0.296847999095916748 0.030225999653339386
0.502768993377685547 0.299888014793395996 0.0301799997687339783
0.502768993377685547 0.302917003631591797 0.0301350001245737076
0.502768993377685547 0.30593600869178772 0.0300890002399682999
0.502768993377685547 0.308945000171661377 0.0300440005958080292
0.502768993377685547 0.311944007873535156 0.0299989990890026093
0.502768993377685547 0.31493300199508667 0.0299539994448423386
0.502768993377685547 0.317912012338638306 0.0299089998006820679
0.502768993377685547 0.320881009101867676 0.0298640001565217972
0.502768993377685547 0.323841005563735962 0.0298190005123615265
0.502768993377685547 0.326790004968643188 0.0297749992460012436
0.502768993377685547 0.329730004072189331 0.0297309998422861099
0.502768993377685547 0.332659989595413208 0.0296870004385709763
0.502768993377685547 0.335579991340637207 0.0296429991722106934
0.502768993377685547 0.338490992784500122 0.0295989997684955597
0.502767980098724365 0.341392010450363159 0.029555000364780426
0.502768993377685547 0.344283998012542725 0.0295109990984201431
0.502768993377685547 0.347166001796722412 0.0294679999351501465
0.502768993377685547 0.350039005279541016 0.0294250007718801498
0.502768993377685547 0.352903008460998535 0.029381999745965004
0.502767980098724365 0.355756998062133789 0.0293390005826950073
0.502768993377685547 0.358601987361907959 0.0292959995567798615
0.502768993377685547 0.361436992883682251 0.0292530003935098648
0.502768993377685547 0.364264011383056641 0.0292099993675947189
0.502767980098724365 0.367080986499786377 0.0291680004447698593
0.502768993377685547 0.369888991117477417 0.0291259996592998505
0.502768993377685547 0.372687995433807373 0.0290840007364749908
0.502768993377685547 0.375479012727737427 0.029041999951004982
0.502768993377685547 0.378259986639022827 0.0289999991655349731
0.502768993377685547 0.381031990051269531 0.0289580002427101135
0.502767980098724365 0.383794993162155151 0.0289159994572401047
0.502768993377685547 0.386550009250640869 0.0288750007748603821
0.502768993377685547 0.389295995235443115 0.0288329999893903732
0.502768993377685547 0.392033010721206665 0.0287919994443655014
0.502768993377685547 0.394760996103286743 0.0287510007619857788
0.502768993377685547 0.397480010986328125 0.028710000216960907
0.502768993377685547 0.400191009044647217 0.0286689996719360352
0.502768993377685547 0.402893990278244019 0.0286289993673563004
0.502768993377685547 0.405588001012802124 0.0285880006849765778
0.502768993377685547 0.408273011445999146 0.028548000380396843
0.502767980098724365 0.410950005054473877 0.0285069998353719711
0.502768993377685547 0.413617998361587524 0.0284669995307922363
0.502768993377685547 0.41627800464630127 0.0284269992262125015
0.502768993377685547 0.418929994106292725 0.028387000784277916
0.502768993377685547 0.421573013067245483 0.0283470004796981812
0.502768993377685547 0.424207985401153564 0.0283070001751184464
0.502768993377685547 0.426835000514984131 0.0282680001109838486
0.502768993377685547 0.429453998804092407 0.0282279998064041138
0.502768993377685547 0.4320639967918396 0.028188999742269516
0.502768993377685547 0.434666991233825684 0.0281499996781349182
0.502768993377685547 0.437260985374450684 0.0281109996140003204
0.502768993377685547 0.439846992492675781 0.0280719995498657227
0.502768993377685547 0.442425996065139771 0.0280329994857311249
0.502768993377685547 0.444995999336242676 0.0279939994215965271
0.502768993377685547 0.447557985782623291 0.0279559995979070663
0.502768993377685547 0.450112998485565186 0.0279169995337724686
0.502768993377685547 0.452659010887145996 0.0278789997100830078
0.502768993377685547 0.455197989940643311 0.0278409998863935471
0.502768993377685547 0.45772901177406311 0.0278030000627040863
0.502768993377685547 0.460251986980438232 0.0277639999985694885
0.502768993377685547 0.462767988443374634 0.0277270004153251648
0.502768993377685547 0.465276002883911133 0.027689000591635704
0.502768993377685547 0.467776000499725342 0.0276510007679462433
0.502768993377685547 0.470268994569778442 0.0276139993220567703
0.502768993377685547 0.472754001617431641 0.0275759994983673096
0.499040007591247559 0.472755014896392822 0.0276560001075267792
0.495283991098403931 0.472755014896392822 0.0277369990944862366
0.49150499701499939 0.472755014896392822 0.0278179999440908432
0.487699985504150391 0.472755014896392822 0.0278990007936954498
0.483871012926101685 0.472755014896392822 0.0279810000211000443
0.480015993118286133 0.472755014896392822 0.0280639994889497757
0.476134985685348511 0.472755014896392822 0.0281470008194446564
0.47222900390625 0.472755014896392822 0.0282310005277395248
0.468297004699707031 0.472755014896392822 0.0283150002360343933
0.464338004589080811 0.472755014896392822 0.0284000001847743988
0.460352987051010132 0.472755014896392822 0.0284850001335144043
0.456340998411178589 0.472755014896392822 0.0285710003226995468
0.452300995588302612 0.472755014896392822 0.0286580007523298264
0.448235005140304565 0.472755014896392822 0.0287449993193149567
0.444139987230300903 0.472755014896392822 0.0288329999893903732
0.440017998218536377 0.472755014896392822 0.0289210006594657898
0.435867011547088623 0.472755014896392822 0.0290099997073411942
0.431688010692596436 0.472755014896392822 0.0291000008583068848
0.427480012178421021 0.472755014896392822 0.0291900001466274261
0.42324298620223999 0.472755014896392822 0.0292809996753931046
0.418976008892059326 0.472755014896392822 0.029371999204158783
0.414680004119873047 0.472755014896392822 0.0294640008360147476
0.410353004932403564 0.472755014896392822 0.0295570008456707001
0.405995994806289673 0.472755014896392822 0.0296509992331266403
0.401607990264892578 0.472755014896392822 0.0297449994832277298
0.397190004587173462 0.472755014896392822 0.0298389997333288193
0.392740011215209961 0.472755014896392822 0.0299350004643201828
0.388258010149002075 0.472755014896392822 0.0300309993326663971
0.383744001388549805 0.472755014896392822 0.0301270000636577606
0.379198014736175537 0.472755014896392822 0.030224999412894249
0.374619007110595703 0.472755014896392822 0.0303230006247758865
0.37000700831413269 0.472755014896392822 0.0304220002144575119
0.365361005067825317 0.472755014896392822 0.0305220000445842743
0.360682010650634766 0.472755014896392822 0.0306219998747110367
0.355967998504638672 0.472755014896392822 0.0307229999452829361
0.351220011711120605 0.472755014896392822 0.0308250002562999725
0.346437007188796997 0.472755014896392822 0.030927000567317009
0.341618001461029053 0.472755014896392822 0.0310299992561340332
0.336764007806777954 0.472755014896392822 0.0311350002884864807
0.33187401294708252 0.472755014896392822 0.031238999217748642
0.326947003602981567 0.472755014896392822 0.0313449986279010773
0.321983009576797485 0.472755014896392822 0.031451001763343811
0.316980987787246704 0.472755014896392822 0.0315590016543865204
0.311942994594573975 0.472755014896392822 0.0316670015454292297
0.306865006685256958 0.472755014896392822 0.0317750014364719391
0.301748991012573242 0.472755014896392822 0.0318850018084049225
0.296593993902206421 0.472755014896392822 0.0319960005581378937
0.291399985551834106 0.472755014896392822 0.0321069993078708649
0.286164999008178711 0.472755014896392822 0.0322190001606941223
0.280889987945556641 0.472755014896392822 0.0323319993913173676
0.275573998689651489 0.472755014896392822 0.032446000725030899
0.270215988159179688 0.472755014896392822 0.0325610004365444183
0.264816999435424805 0.472755014896392822 0.0326769985258579254
0.259375005960464478 0.472755014896392822 0.032793000340461731
0.2538909912109375 0.472755014896392822 0.0329109989106655121
0.24836200475692749 0.472755014896392822 0.0330290012061595917
0.242789998650550842 0.472755014896392822 0.0331490002572536469
0.237174004316329956 0.472755014896392822 0.033268999308347702
0.231511995196342468 0.472755014896392822 0.0333909988403320312
0.225804999470710754 0.472755014896392822 0.0335129983723163605
0.220052003860473633 0.472755014896392822 0.033636000007390976
0.214251995086669922 0.472755014896392822 0.033760998398065567
0.208405002951622009 0.472755014896392822 0.0338860005140304565
0.20250999927520752 0.472755014896392822 0.0340120010077953339
0.196566998958587646 0.472755014896392822 0.0341399982571601868
0.190575003623962402 0.472755014896392822 0.0342679992318153381
0.184532999992370605 0.472755014896392822 0.0343980006873607635
0.17844100296497345 0.472755014896392822 0.0345279984176158905
0.172297999262809753 0.472755014896392822 0.03466000035405159
0.16610400378704071 0.472755014896392822 0.0347930006682872772
0.159858003258705139 0.472755014896392822 0.0349269993603229523
0.153558000922203064 0.472755014896392822 0.0350620001554489136
0.14720599353313446 0.472755014896392822 0.0351979993283748627
0.140799000859260559 0.472755014896392822 0.035335000604391098
0.134336993098258972 0.472755014896392822 0.035473998636007309
0.127820000052452087 0.472755014896392822 0.0356130003929138184
0.121246002614498138 0.472755014896392822 0.0357539989054203033
0.114615999162197113 0.472755014896392822 0.0358959995210170746
0.107927002012729645 0.472755014896392822 0.0360400006175041199
0.101181000471115112 0.472755014896392822 0.0361840017139911652
0.0943740010261535645 0.472755014896392822 0.036329999566078186
0.0875080004334449768 0.472755014896392822 0.0364769995212554932
0.0805810019373893738 0.472755014896392822 0.0366259999573230743
0.0735929980874061584 0.472755014896392822 0.0367759987711906433
0.0665410012006759644 0.472755014896392822 0.0369269996881484985
0.0594270005822181702 0.472755014896392822 0.0370789989829063416
0.0522480010986328125 0.472755014896392822 0.0372329987585544586
0.0450050011277198792 0.472755014896392822 0.0373880006372928619
0.0376950018107891083 0.472755014896392822 0.0375449992716312408
0.0303179994225502014 0.472755014896392822 0.037703000009059906
0.0228739995509386063 0.472755014896392822 0.0378630012273788452
0.0153609998524188995 0.472755014896392822 0.0380240008234977722
0.00777800008654594421 0.472755014896392822 0.038185998797416687
0.000123999998322688043 0.472755014896392822 0.0383509993553161621
-0.00760099990293383598 0.472755014896392822 0.0385159999132156372
-0.0153989996761083603 0.472755014896392822 0.0386830009520053864
-0.023269999772310257 0.472755014896392822 0.0388519987463951111
-0.0312159992754459381 0.472755014896392822 0.0390219986438751221
-0.0392379984259605408 0.472755014896392822 0.0391939990222454071
-0.0473369993269443512 0.472755014896392822 0.0393679998815059662
-0.0555140003561973572 0.472755014896392822 0.0395429991185665131
-0.063770003616809845 0.472755014896392822 0.039719998836517334
-0.0721070021390914917 0.472755014896392822 0.039898999035358429
-0.0805239975452423096 0.472755014896392822 0.0400790013372898102
-0.0890249982476234436 0.472755014896392822 0.040261000394821167
-0.0976089984178543091 0.472755014896392822 0.0404449999332427979
-0.106279000639915466 0.472755014896392822 0.0406309999525547028
-0.115034997463226318 0.472755014896392822 0.0408190004527568817
-0.123878002166748047 0.472755014896392822 0.0410090014338493347
-0.132810994982719421 0.472755014896392822 0.0412000007927417755
-0.141835004091262817 0.472755014896392822 0.0413930006325244904
-0.150949001312255859 0.472755014896392822 0.041588999330997467
-0.160156995058059692 0.472755014896392822 0.04178600013256073
-0.169459998607635498 0.472755014896392822 0.0419859997928142548
-0.17885899543762207 0.472755014896392822 0.0421870015561580658
-0.188354998826980591 0.472755014896392822 0.0423909984529018402
-0.197951003909111023 0.472755014896392822 0.0425960011780261993
-0.207646995782852173 0.472755014896392822 0.0428039990365505219
-0.217445001006126404 0.472755014896392822 0.0430140011012554169
-0.227347999811172485 0.472755014896392822 0.0432259999215602875
-0.23735499382019043 0.472755014896392822 0.0434410013258457184
-0.247471004724502563 0.472755014896392822 0.0436579994857311249
-0.257694005966186523 0.472755014896392822 0.0438770018517971039
-0.268029004335403442 0.472755014896392822 0.0440980009734630585
-0.278477013111114502 0.472755014896392822 0.0443219989538192749
-0.289038985967636108 0.472755014896392822 0.0445489995181560516
-0.299715995788574219 0.472755014896392822 0.0447780005633831024
-0.332468003034591675 0.472755014896392822 0.0454800017178058624
-0.445502996444702148 0.455332010984420776 0.0481650009751319885
-0.448383986949920654 0.458218008279800415 0.0481830015778541565
0.502768993377685547 -0.452264994382858276 0.0439359992742538452
0.502768993377685547 -0.446191012859344482 0.0438390001654624939
0.502768993377685547 -0.440145999193191528 0.0437420010566711426
0.502768993377685547 -0.434130012989044189 0.0436460003256797791
0.502768993377685547 -0.428142011165618896 0.0435499995946884155
0.502768993377685547 -0.422183007001876831 0.043453998863697052
0.502768993377685547 -0.416251003742218018 0.0433590002357959747
0.502768993377685547 -0.410347014665603638 0.0432649999856948853
0.502768993377685547 -0.404471009969711304 0.0431709997355937958
0.502768993377685547 -0.392800003290176392 0.0429840013384819031
0.502768993377685547 -0.381237000226974487 0.042798999696969986
0.502768993377685547 -0.375496000051498413 0.0427069999277591705
0.502768993377685547 -0.369780987501144409 0.0426150001585483551
0.502768993377685547 -0.364091992378234863 0.0425239987671375275
0.502768993377685547 -0.358429998159408569 0.0424339994788169861
0.502768993377685547 -0.352793008089065552 0.0423430018126964569
0.502768993377685547 -0.347182005643844604 0.0422529987990856171
0.502768993377685547 -0.341596990823745728 0.0421640016138553619
0.502768993377685547 -0.336037009954452515 0.0420750007033348083
0.502768993377685547 -0.33050200343132019 0.0419859997928142548
0.502768993377685547 -0.324992001056671143 0.0418980009853839874
0.502768993377685547 -0.319507986307144165 0.0418099984526634216
0.502768993377685547 -0.314047008752822876 0.0417230017483234406
0.502768993377685547 -0.308611005544662476 0.041636001318693161
0.502767980098724365 -0.297812998294830322 0.0414629988372325897
0.502768993377685547 -0.292450010776519775 0.0413770005106925964
0.502768993377685547 -0.287111014127731323 0.0412920005619525909
0.502768993377685547 -0.281794995069503784 0.0412059985101222992
0.502768993377685547 -0.276502996683120728 0.04112200066447258
0.502768993377685547 -0.271234989166259766 0.0410370007157325745
0.502768993377685547 -0.265989989042282104 0.0409529991447925568
0.502768993377685547 -0.260767996311187744 0.0408699996769428253
0.502768993377685547 -0.255569010972976685 0.0407860018312931061
0.502767980098724365 -0.250391989946365356 0.0407040007412433624
0.502768993377685547 -0.245238006114959717 0.040621001273393631
0.502768993377685547 -0.229910999536514282 0.0403760001063346863
0.502768993377685547 -0.224847003817558289 0.0402950011193752289
0.502768993377685547 -0.219804003834724426 0.040213998407125473
0.502767980098724365 -0.214782997965812683 0.0401329994201660156
0.502768993377685547 -0.209784001111984253 0.040052998811006546
0.502768993377685547 -0.204805999994277954 0.0399740003049373627
0.502768993377685547 -0.199848994612693787 0.0398939996957778931
0.502768993377685547 -0.194913998246192932 0.0398150011897087097
0.502768993377685547 -0.189999997615814209 0.0397370010614395142
0.502768993377685547 -0.185106992721557617 0.0396579988300800323
0.502768993377685547 -0.180234000086784363 0.0395799987018108368
0.502768993377685547 -0.17538200318813324 0.0395030006766319275
0.502768993377685547 -0.170551002025604248 0.0394250005483627319
0.502768993377685547 -0.165740996599197388 0.0393479987978935242
0.502767980098724365 -0.160950005054473877 0.0392710007727146149
0.502768993377685547 -0.156179994344711304 0.0391950011253356934
0.502768993377685547 -0.15142899751663208 0.0391190014779567719
0.502768993377685547 -0.146698996424674988 0.0390430018305778503
0.502768993377685547 -0.141987994313240051 0.0389680005609989166
0.502767980098724365 -0.13729800283908844 0.0388929992914199829
0.502768993377685547 -0.132625997066497803 0.0388180017471313477
0.502768993377685547 -0.127974003553390503 0.0387430004775524139
0.502767980098724365 -0.123341001570224762 0.0386690013110637665
0.502768993377685547 -0.118727996945381165 0.0385949984192848206
0.502768993377685547 -0.114133000373840332 0.0385220013558864594
0.502768993377685547 -0.109558001160621643 0.0384490005671977997
0.502768993377685547 -0.105001002550125122 0.03837599977850914
0.502768993377685547 -0.100463002920150757 0.0383029989898204803
0.502768993377685547 -0.0959440022706985474 0.0382310003042221069
0.502768993377685547 -0.0914430022239685059 0.0381579995155334473
0.502768993377685547 -0.0869600027799606323 0.0380869992077350616
0.502768993377685547 -0.0824960023164749146 0.0380150005221366882
0.502768993377685547 -0.0780500024557113647 0.0379440002143383026
0.502768993377685547 -0.0736209973692893982 0.037872999906539917
0.502768993377685547 -0.0692109987139701843 0.0378030017018318176
0.502768993377685547 -0.0648190006613731384 0.037732001394033432
0.502768993377685547 -0.0604440011084079742 0.0376619994640350342
0.502768993377685547 -0.0560869984328746796 0.0375920012593269348
0.502768993377685547 -0.0517470017075538635 0.0375230014324188232
0.502768993377685547 -0.047425001859664917 0.0374540016055107117
0.502768993377685547 -0.0431200005114078522 0.0373850017786026001
0.502768993377685547 -0.0388320013880729675 0.0373159982264041901
0.502768993377685547 -0.0345619991421699524 0.0372480005025863647
0.502768993377685547 -0.0303080007433891296 0.037179999053478241
0.502768993377685547 -0.0260710008442401886 0.0371120013296604156
0.502768993377685547 -0.0218509994447231293 0.0370439998805522919
0.502768993377685547 -0.0176480002701282501 0.0369770005345344543
0.502768993377685547 -0.0134610002860426903 0.0369100011885166168
0.502768993377685547 -0.00929000042378902435 0.0368430018424987793
0.502768993377685547 -0.00513599999248981476 0.0367770008742809296
0.502768993377685547 -0.000999000039882957935 0.036710001528263092
0.502768993377685547 0.00312300003133714199 0.0366440005600452423
0.502767980098724365 0.00722800008952617645 0.0365790016949176788
0.502768993377685547 0.0113180000334978104 0.0365130007266998291
0.502768993377685547 0.0153909996151924133 0.0364480018615722656
0.502768993377685547 0.0194489993155002594 0.0363829992711544037
0.502768993377685547 0.0234910007566213608 0.0363180004060268402
0.502768993377685547 0.027517000213265419 0.0362539999186992645
0.502768993377685547 0.0315279997885227203 0.036189001053571701
0.502768993377685547 0.035523001104593277 0.0361259989440441132
0.502768993377685547 0.0395030006766319275 0.0360619984567165375
0.502767980098724365 0.0434679985046386719 0.0359980016946792603
0.502768993377685547 0.0474169999361038208 0.0359349995851516724
0.502768993377685547 0.0513520017266273499 0.0358720012009143829
0.502768993377685547 0.0552709996700286865 0.035808999091386795
0.502768993377685547 0.0591760016977787018 0.0357469990849494934
0.502768993377685547 0.0630659982562065125 0.035684000700712204
0.502768993377685547 0.0669410005211830139 0.0356220006942749023
0.502768993377685547 0.0708009973168373108 0.0355609990656375885
0.502768993377685547 0.0746460035443305969 0.0354989990592002869
0.502768993377685547 0.0784770026803016663 0.0354380011558532715
0.502768993377685547 0.0822940021753311157 0.0353769995272159576
0.502768993377685547 0.0860960036516189575 0.0353160016238689423
0.502768993377685547 0.0898849964141845703 0.0352549999952316284
0.502767980098724365 0.0936580002307891846 0.0351950004696846008
0.502768993377685547 0.0974180027842521667 0.035133998841047287
0.502768993377685547 0.101163998246192932 0.0350739993155002594
0.502768993377685547 0.104896001517772675 0.0350149981677532196
0.502768993377685547 0.1086139976978302 0.034954998642206192
0.502768993377685547 0.112318001687526703 0.0348960012197494507
0.502768993377685547 0.116008996963500977 0.0348370000720024109
0.502768993377685547 0.119686000049114227 0.0347779989242553711
0.502767980098724365 0.123349003493785858 0.0347190015017986298
0.502768993377685547 0.126999005675315857 0.0346609987318515778
0.502768993377685547 0.130634993314743042 0.0346029996871948242
0.502768993377685547 0.134258002042770386 0.0345450006425380707
0.502768993377685547 0.1378680020570755 0.0344870015978813171
0.502768993377685547 0.141463994979858398 0.0344289988279342651
0.502768993377685547 0.145048007369041443 0.0343719981610774994
0.502767980098724365 0.148617997765541077 0.0343150012195110321
0.502768993377685547 0.152175992727279663 0.0342580005526542664
0.502768993377685547 0.155719995498657227 0.0342009998857975006
0.502767980098724365 0.159252002835273743 0.0341439992189407349
0.502768993377685547 0.16277100145816803 0.0340880006551742554
0.502768993377685547 0.166277006268501282 0.0340319983661174774
0.502768993377685547 0.169771000742912292 0.0339759998023509979
0.502768993377685547 0.173252001404762268 0.0339200012385845184
0.502768993377685547 0.176719993352890015 0.0338650010526180267
0.502768993377685547 0.180176004767417908 0.0338089987635612488
0.502768993377685547 0.18362000584602356 0.0337539985775947571
0.502768993377685547 0.187050998210906982 0.0336989983916282654
0.502768993377685547 0.190470993518829346 0.0336439982056617737
0.502768993377685547 0.193877995014190674 0.0335900001227855682
0.502768993377685547 0.197273001074790955 0.0335359983146190643
0.502768993377685547 0.200655996799468994 0.0334810018539428711
0.502768993377685547 0.204026997089385986 0.0334270000457763672
0.502768993377685547 0.207386001944541931 0.0333740003407001495
0.502768993377685547 0.210732996463775635 0.0333199985325336456
0.502768993377685547 0.214067995548248291 0.033266998827457428
0.502768993377685547 0.217391997575759888 0.0332130007445812225
0.502768993377685547 0.220704004168510437 0.0331600010395050049
0.502768993377685547 0.224004000425338745 0.033107999712228775
0.502768993377685547 0.227292999625205994 0.0330550000071525574
0.502768993377685547 0.230571001768112183 0.0330020003020763397
0.502767980098724365 0.23383699357509613 0.0329499989748001099
0.502768993377685547 0.237092003226280212 0.0328980013728141785
0.502768993377685547 0.240335002541542053 0.0328460000455379486
0.502768993377685547 0.243567004799842834 0.0327939987182617188
0.502768993377685547 0.246787995100021362 0.0327429994940757751
0.502768993377685547 0.249998003244400024 0.0326909981667995453
0.502767980098724365 0.253196001052856445 0.0326399989426136017
0.502768993377685547 0.256383985280990601 0.0325889997184276581
0.502768993377685547 0.259561002254486084 0.0325380004942417145
0.502768993377685547 0.26272699236869812 0.0324879996478557587
0.502768993377685547 0.265881985425949097 0.0324370004236698151
0.502768993377685547 0.269026011228561401 0.0323869995772838593
0.502768993377685547 0.272159993648529053 0.0323360003530979156
0.502768993377685547 0.275283008813858032 0.0322859995067119598
0.502768993377685547 0.278394997119903564 0.0322370007634162903
0.502768993377685547 0.281497001647949219 0.0321869999170303345
0.502767980098724365 0.284588009119033813 0.0321369990706443787
0.502768993377685547 0.287669003009796143 0.0320880003273487091
0.502768993377685547 0.290738999843597412 0.0320390015840530396
0.502768993377685547 0.293799012899398804 0.0319899991154670715
0.502768993377685547 0.29684901237487793 0.031941000372171402
0.502768993377685547 0.299888014793395996 0.0318920016288757324
0.502768993377685547 0.302917003631591797 0.0318440012633800507
0.502768993377685547 0.305936992168426514 0.0317960008978843689
0.502767980098724365 0.308945000171661377 0.0317469984292984009
0.502768993377685547 0.311944007873535156 0.0316990017890930176
0.502767980098724365 0.31493300199508667 0.0316519998013973236
0.502767980098724365 0.317912012338638306 0.0316039994359016418
0.502767980098724365 0.320881009101867676 0.0315559990704059601
0.502768993377685547 0.323841005563735962 0.0315090008080005646
0.502767980098724365 0.326790004968643188 0.0314619988203048706
0.502768993377685547 0.329730004072189331 0.0314150005578994751
0.502767980098724365 0.332659989595413208 0.0313679985702037811
0.502768993377685547 0.335581004619598389 0.0313210003077983856
0.502768993377685547 0.338490992784500122 0.0312739983201026917
0.502768993377685547 0.341392993927001953 0.0312280002981424332
0.502767980098724365 0.344283998012542725 0.0311820004135370255
0.502768993377685547 0.347166001796722412 0.0311350002884864807
0.502768993377685547 0.350039005279541016 0.031089000403881073
0.502768993377685547 0.352903008460998535 0.0310440007597208023
0.502768993377685547 0.355756998062133789 0.0309980008751153946
0.502768993377685547 0.358601987361907959 0.0309519991278648376
0.502768993377685547 0.361436992883682251 0.030906999483704567
0.502767980098724365 0.364264011383056641 0.0308619998395442963
0.502768993377685547 0.367080986499786377 0.0308170001953840256
0.502768993377685547 0.369888991117477417 0.0307720005512237549
0.502767980098724365 0.372687995433807373 0.0307270009070634842
0.502768993377685547 0.375479012727737427 0.0306819994002580643
0.502768993377685547 0.378259986639022827 0.0306379999965429306
0.502768993377685547 0.381031990051269531 0.0305930003523826599
0.502768993377685547 0.383794993162155151 0.030548999086022377
0.502767980098724365 0.386550009250640869 0.0305049996823072433
0.502768993377685547 0.389295995235443115 0.0304610002785921097
0.502768993377685547 0.392033010721206665 0.030417000874876976
0.502768993377685547 0.394760996103286743 0.0303729996085166931
0.502768993377685547 0.397480994462966919 0.0303300004452466965
0.502768993377685547 0.400191009044647217 0.0302859991788864136
0.502768993377685547 0.402893990278244019 0.0302430000156164169
0.502768993377685547 0.405588001012802124 0.0302000008523464203
0.502768993377685547 0.408273011445999146 0.0301569998264312744
0.502767980098724365 0.410950005054473877 0.0301140006631612778
0.502768993377685547 0.413617998361587524 0.0300709996372461319
0.502767980098724365 0.41627800464630127 0.0300290007144212723
0.502768993377685547 0.418929994106292725 0.0299859996885061264
0.502768993377685547 0.421573013067245483 0.0299440007656812668
0.502768993377685547 0.424207985401153564 0.0299019999802112579
0.502767980098724365 0.426835000514984131 0.0298599991947412491
0.502768993377685547 0.429453998804092407 0.0298180002719163895
0.502768993377685547 0.4320639967918396 0.0297759994864463806
0.502768993377685547 0.434666991233825684 0.029734000563621521
0.502768993377685547 0.437260985374450684 0.0296930000185966492
0.502768993377685547 0.439846992492675781 0.0296509992331266403
0.502768993377685547 0.442425996065139771 0.0296100005507469177
0.502768993377685547 0.444995999336242676 0.0295690000057220459
0.502768993377685547 0.447557985782623291 0.0295279994606971741
0.502768993377685547 0.450112998485565186 0.0294870007783174515
0.502768993377685547 0.452659010887145996 0.0294460002332925797
0.502768993377685547 0.455197989940643311 0.0294059999287128448
0.502768993377685547 0.45772901177406311 0.029364999383687973
0.502768993377685547 0.460251986980438232 0.0293249990791082382
0.502767980098724365 0.462767988443374634 0.0292840003967285156
0.502768993377685547 0.465276002883911133 0.0292440000921487808
0.502768993377685547 0.467776000499725342 0.029203999787569046
0.502768993377685547 0.470268994569778442 0.0291639994829893112
0.502768993377685547 0.472754001617431641 0.0291249994188547134
0.499040007591247559 0.472755014896392822 0.0292089991271495819
0.495283991098403931 0.472755014896392822 0.0292949993163347244
0.49150499701499939 0.472755014896392822 0.0293809995055198669
0.487699985504150391 0.472755014896392822 0.0294679999351501465
0.483871012926101685 0.472755014896392822 0.029555000364780426
0.480015993118286133 0.472755014896392822 0.0296429991722106934
0.476135998964309692 0.472755014896392822 0.0297309998422861099
0.47222900390625 0.472755014896392822 0.0298200007528066635
0.468297004699707031 0.472755014896392822 0.0299100000411272049
0.464338004589080811 0.472755014896392822 0.0299999993294477463
0.460352987051010132 0.472755014896392822 0.0300910007208585739
0.456340998411178589 0.472755014896392822 0.0301820002496242523
0.452302008867263794 0.472755014896392822 0.0302740000188350677
0.448235005140304565 0.472755014896392822 0.0303670000284910202
0.444141000509262085 0.472755014896392822 0.0304600000381469727
0.440017998218536377 0.472755014896392822 0.0305540002882480621
0.435867995023727417 0.472755014896392822 0.0306490007787942886
0.431688010692596436 0.472755014896392822 0.0307439994066953659
0.427480012178421021 0.472755014896392822 0.0308400001376867294
0.42324298620223999 0.472755014896392822 0.030936000868678093
0.41897699236869812 0.472755014896392822 0.0310340002179145813
0.414680004119873047 0.472755014896392822 0.0311319995671510696
0.410353988409042358 0.472755014896392822 0.0312300007790327072
0.405997008085250854 0.472755014896392822 0.0313289985060691833
0.40160900354385376 0.472755014896392822 0.031429000198841095
0.397190004587173462 0.472755014896392822 0.0315300002694129944
0.392740011215209961 0.472755014896392822 0.0316310003399848938
0.388258010149002075 0.472755014896392822 0.0317340008914470673
0.383745014667510986 0.472755014896392822 0.0318359993398189545
0.379198014736175537 0.472755014896392822 0.0319399982690811157
0.374619007110595703 0.472755014896392822 0.0320440009236335754
0.37000700831413269 0.472755014896392822 0.0321489982306957245
0.365361988544464111 0.472755014896392822 0.0322550013661384583
0.360682010650634766 0.472755014896392822 0.0323619991540908813
0.355969011783599854 0.472755014896392822 0.0324690006673336029
0.351220011711120605 0.472755014896392822 0.0325770005583763123
0.346437007188796997 0.472755014896392822 0.0326859988272190094
0.341619014739990234 0.472755014896392822 0.0327959991991519928
0.336764991283416748 0.472755014896392822 0.0329070016741752625
0.33187401294708252 0.472755014896392822 0.0330180004239082336
0.326947987079620361 0.472755014896392822 0.0331309996545314789
0.321983993053436279 0.472755014896392822 0.0332439988851547241
0.316982001066207886 0.472755014896392822 0.0333580002188682556
0.311942994594573975 0.472755014896392822 0.0334720015525817871
0.306865990161895752 0.472755014896392822 0.0335879996418952942
0.301750004291534424 0.472755014896392822 0.0337049998342990875
0.296595007181167603 0.472755014896392822 0.0338220000267028809
0.291400998830795288 0.472755014896392822 0.033939998596906662
0.286166012287139893 0.472755014896392822 0.0340600013732910156
0.280891001224517822 0.472755014896392822 0.0341800004243850708
0.275575011968612671 0.472755014896392822 0.0343010015785694122
0.270217001438140869 0.472755014896392822 0.0344230011105537415
0.264818012714385986 0.472755014896392822 0.0345459990203380585
0.259375989437103271 0.472755014896392822 0.0346699990332126617
0.253892004489898682 0.472755014896392822 0.0347950011491775513
0.248364001512527466 0.472755014896392822 0.0349210016429424286
0.242791995406150818 0.472755014896392822 0.0350480005145072937
0.237175002694129944 0.472755014896392822 0.0351760014891624451
0.231514006853103638 0.472755014896392822 0.0353050008416175842
0.225805997848510742 0.472755014896392822 0.0354349985718727112
0.220053002238273621 0.472755014896392822 0.0355659984052181244
0.21425299346446991 0.472755014896392822 0.0356980003416538239
0.208406999707221985 0.472755014896392822 0.0358310006558895111
0.202511996030807495 0.472755014896392822 0.0359660014510154724
0.196568995714187622 0.472755014896392822 0.0361009985208511353
0.19057600200176239 0.472755014896392822 0.0362379997968673706
0.184534996747970581 0.472755014896392822 0.036375001072883606
0.178442999720573425 0.472755014896392822 0.0365139991044998169
0.172299996018409729 0.472755014896392822 0.0366539992392063141
0.166105002164840698 0.472755014896392822 0.0367950014770030975
0.159859001636505127 0.472755014896392822 0.0369380004703998566
0.15355999767780304 0.472755014896392822 0.0370809994637966156
0.147207006812095642 0.472755014896392822 0.0372259989380836487
0.140799999237060547 0.472755014896392822 0.037372000515460968
0.134339004755020142 0.472755014896392822 0.0375190004706382751
0.127820998430252075 0.472755014896392822 0.0376669988036155701
0.121247999370098114 0.472755014896392822 0.0378170013427734375
0.114616997539997101 0.472755014896392822 0.0379679985344409943
0.10792899876832962 0.472755014896392822 0.0381209999322891235
0.1011819988489151 0.472755014896392822 0.0382740013301372528
0.09437599778175354 0.472755014896392822 0.0384300015866756439
0.0875099971890449524 0.472755014896392822 0.038586001843214035
0.0805829986929893494 0.472755014896392822 0.0387439988553524017
0.073595002293586731 0.472755014896392822 0.0389030016958713531
0.0665439963340759277 0.472755014896392822 0.0390640012919902802
0.0594290010631084442 0.472755014896392822 0.0392259992659091949
0.0522500015795230865 0.472755014896392822 0.039388999342918396
0.0450070016086101532 0.472755014896392822 0.0395539999008178711
0.0376969985663890839 0.472755014896392822 0.0397210009396076202
0.0303199999034404755 0.472755014896392822 0.0398890003561973572
0.0228760000318288803 0.472755014896392822 0.0400590002536773682
0.0153630003333091736 0.472755014896392822 0.0402299985289573669
0.00778000010177493095 0.472755014896392822 0.0404030010104179382
0.000127000006614252925 0.472755014896392822 0.0405769981443881989
-0.00759800011292099953 0.472755014896392822 0.040752999484539032
-0.0153959998860955238 0.472755014896392822 0.0409310013055801392
-0.0232679992914199829 0.472755014896392822 0.0411100015044212341
-0.0312140006572008133 0.472755014896392822 0.0412909984588623047
-0.0392360016703605652 0.472755014896392822 0.0414739996194839478
-0.0473349988460540771 0.472755014896392822 0.0416579991579055786
-0.0555110014975070953 0.472755014896392822 0.0418450012803077698
-0.0637670010328292847 0.472755014896392822 0.0420330017805099487
-0.0721039995551109314 0.472755014896392822 0.0422229990363121033
-0.0805210024118423462 0.472755014896392822 0.0424139983952045441
-0.0890220031142234802 0.472755014896392822 0.0426080003380775452
-0.0976060032844543457 0.472755014896392822 0.0428039990365505219
-0.106275998055934906 0.472755014896392822 0.0430009998381137848
-0.132807999849319458 0.472755014896392822 0.043605998158454895
-0.141830995678901672 0.472755014896392822 0.0438110008835792542
-0.150946006178855896 0.472755014896392822 0.0440189987421035767
-0.160153999924659729 0.472755014896392822 0.0442290008068084717
-0.169457003474235535 0.472755014896392822 0.0444409996271133423
-0.178855001926422119 0.472755014896392822 0.0446549989283084869
-0.18835100531578064 0.472755014896392822 0.0448709987103939056
-0.197946995496749878 0.472755014896392822 0.0450900010764598846
-0.207643002271652222 0.472755014896392822 0.0453110001981258392
-0.227342993021011353 0.472755014896392822 0.0457599982619285583
0.502768993377685547 -0.416247010231018066 0.0457499995827674866
0.502768993377685547 -0.38123399019241333 0.0451570004224777222
0.502768993377685547 -0.375492006540298462 0.0450589992105960846
0.502768993377685547 -0.369776993989944458 0.0449620001018047333
0.502768993377685547 -0.364089012145996094 0.0448659993708133698
0.502768993377685547 -0.358426004648208618 0.0447699986398220062
0.502767980098724365 -0.352789998054504395 0.0446740016341209412
0.502768993377685547 -0.330498993396759033 0.0442960001528263092
0.502768993377685547 -0.324988991022109985 0.0442029982805252075
0.502768993377685547 -0.319503992795944214 0.0441100001335144043
0.502768993377685547 -0.314043998718261719 0.0440169982612133026
0.502768993377685547 -0.308607995510101318 0.0439249984920024872
0.502768993377685547 -0.303196996450424194 0.0438329987227916718
0.502768993377685547 -0.297809988260269165 0.0437420010566711426
0.502767980098724365 -0.292447000741958618 0.0436509996652603149
0.502768993377685547 -0.287108004093170166 0.0435599982738494873
0.502767980098724365 -0.281792998313903809 0.0434699989855289459
0.502768993377685547 -0.276500999927520752 0.0433799996972084045
0.502767980098724365 -0.271232008934020996 0.043290998786687851
0.502768993377685547 -0.265987008810043335 0.0432020016014575958
0.502768993377685547 -0.260764986276626587 0.0431130006909370422
0.502767980098724365 -0.255566000938415527 0.0430249981582164764
0.502768993377685547 -0.219800993800163269 0.0424190014600753784
0.502768993377685547 -0.21478000283241272 0.0423340015113353729
0.502768993377685547 -0.20978100597858429 0.0422490015625953674
0.502768993377685547 -0.204803004860877991 0.0421640016138553619
0.502768993377685547 -0.199846997857093811 0.0420800000429153442
0.502768993377685547 -0.194911003112792969 0.0419970005750656128
0.502768993377685547 -0.189997002482414246 0.0419129990041255951
0.502768993377685547 -0.185103997588157654 0.0418299995362758636
0.502768993377685547 -0.180231004953384399 0.04174799844622612
0.502768993377685547 -0.175380006432533264 0.0416649989783763885
0.502768993377685547 -0.170549005270004272 0.0415830016136169434
0.502768993377685547 -0.165738001465797424 0.0415019989013671875
0.502768993377685547 -0.16094699501991272 0.0414209999144077301
0.502768993377685547 -0.15617699921131134 0.0413400009274482727
0.502768993377685547 -0.151427000761032104 0.0412589982151985168
0.502768993377685547 -0.146696999669075012 0.0411790013313293457
0.502768993377685547 -0.141985997557640076 0.0410990007221698761
0.502768993377685547 -0.137294992804527283 0.0410190001130104065
0.502768993377685547 -0.132624000310897827 0.0409400016069412231
0.502768993377685547 -0.127972006797790527 0.0408609993755817413
0.502768993377685547 -0.123338997364044189 0.0407829992473125458
0.502768993377685547 -0.118725001811981201 0.0407040007412433624
0.502768993377685547 -0.114131003618240356 0.0406269989907741547
0.502768993377685547 -0.109555996954441071 0.0405489988625049591
0.502768993377685547 -0.10499899834394455 0.0404720008373260498
0.502768993377685547 -0.100460998713970184 0.040394999086856842
0.502768993377685547 -0.0959409996867179871 0.0403180010616779327
0.502768993377685547 -0.0914409980177879333 0.0402420014142990112
0.502768993377685547 -0.0869579985737800598 0.0401660017669200897
0.502768993377685547 -0.082493998110294342 0.0400899983942508698
0.502768993377685547 -0.0780479982495307922 0.0400150008499622345
0.502768993377685547 -0.0736190006136894226 0.039939001202583313
0.502768993377685547 -0.0692090019583702087 0.0398649983108043671
0.502768993377685547 -0.0604420006275177002 0.0397160016000270844
0.502768993377685547 -0.056085001677274704 0.0396419987082481384
0.502768993377685547 -0.0517459996044635773 0.039567999541759491
0.502767980098724365 -0.0474230013787746429 0.0394949987530708313
0.502768993377685547 -0.0431180000305175781 0.0394220016896724701
0.502768993377685547 -0.0388300009071826935 0.0393490009009838104
0.502768993377685547 -0.0345599986612796783 0.0392769984900951385
0.502768993377685547 -0.0303060002624988556 0.0392049998044967651
0.502768993377685547 -0.0260690003633499146 0.0391330011188983917
0.502767980098724365 -0.0218490008264780045 0.0390609987080097198
0.502768993377685547 -0.0176459997892379761 0.0389899984002113342
0.502768993377685547 -0.0134589998051524162 0.0389190018177032471
0.502768993377685547 -0.00928900018334388733 0.0388480015099048615
0.502768993377685547 -0.00513500021770596504 0.0387779995799064636
