ply
format ascii 1.0
element vertex 744
property float x
property float y
property float z
end_header
-0.0279009994119405746 -0.35435900092124939 0.166620999574661255
-0.0253699999302625656 -0.356077998876571655 0.166585996747016907
-0.0228349994868040085 -0.357490986585617065 0.166556999087333679
-0.0203000009059906006 -0.358803987503051758 0.166531994938850403
-0.0177609995007514954 -0.359923988580703735 0.166510000824928284
-0.0152200004085898399 -0.3608970046043396 0.166492998600006104
-0.0126769999042153358 -0.361750006675720215 0.166477993130683899
-0.0101279998198151588 -0.362424999475479126 0.166466996073722839
-0.00757599994540214539 -0.363025009632110596 0.166458994150161743
-0.00501600001007318497 -0.363424003124237061 0.166455000638961792
-0.00245400005951523781 -0.363781988620758057 0.166452005505561829
0.000118999996630009264 -0.363945990800857544 0.166454002261161804
0.00269500003196299076 -0.364051997661590576 0.166456997394561768
0.00528299994766712189 -0.363979995250701904 0.166464000940322876
0.00788000039756298065 -0.363786995410919189 0.166474997997283936
0.0104879997670650482 -0.363462001085281372 0.166488006711006165
0.0131080001592636108 -0.362996995449066162 0.166504994034767151
0.0157389994710683823 -0.362421005964279175 0.166525006294250488
0.0183850005269050598 -0.361687004566192627 0.166547998785972595
0.0210469998419284821 -0.360790997743606567 0.166575998067855835
0.0237249992787837982 -0.359766989946365356 0.16660599410533905
0.0264270007610321045 -0.358491986989974976 0.166642993688583374
0.0291460007429122925 -0.357109010219573975 0.166682004928588867
0.0318979993462562561 -0.355403006076812744 0.166729003190994263
0.0346789993345737457 -0.353469014167785645 0.166780993342399597
0.0374910011887550354 -0.351289987564086914 0.166840001940727234
0.0403550006449222565 -0.348652005195617676 0.166908994317054749
0.0432780012488365173 -0.345513999462127686 0.166990995407104492
0.0462789982557296753 -0.341715008020401001 0.167089000344276428
0.0493989996612071991 -0.336876988410949707 0.167210996150970459
0.0527670010924339294 -0.329759001731872559 0.167389005422592163
0.230938002467155457 0.143202006816864014 0.17911200225353241
0.233642995357513428 0.137238994240760803 0.178975000977516174
0.236576005816459656 0.132663995027542114 0.178872004151344299
0.239634007215499878 0.128872007131576538 0.17878800630569458
0.242786005139350891 0.125671997666358948 0.178718999028205872
0.246015995740890503 0.122946999967098236 0.178661003708839417
0.249316006898880005 0.120650999248027802 0.178613007068634033
0.252683013677597046 0.118749998509883881 0.178574994206428528
0.256105005741119385 0.11716499924659729 0.178543999791145325
0.259579002857208252 0.115869000554084778 0.178521007299423218
0.263103008270263672 0.114845998585224152 0.178505003452301025
0.26668199896812439 0.114111997187137604 0.178495004773139954
0.270328998565673828 0.113719001412391663 0.178494006395339966
0.274031013250350952 0.113596998155117035 0.178498998284339905
0.224020004272460938 -0.173633992671966553 0.171508997678756714
0.226116001605987549 -0.178233996033668518 0.171403005719184875
0.228334993124008179 -0.182178005576133728 0.171314001083374023
0.230658993124961853 -0.185570999979972839 0.1712380051612854
0.233059003949165344 -0.188554003834724426 0.171171993017196655
0.235514998435974121 -0.191238999366760254 0.171112999320030212
0.238012999296188354 -0.193683996796607971 0.171059995889663696
0.240575000643730164 -0.195811003446578979 0.171013996005058289
0.24317699670791626 -0.197729006409645081 0.170974001288414001
0.24580499529838562 -0.19950200617313385 0.170938000082969666
0.248491004109382629 -0.200999006628990173 0.17090800404548645
0.251204013824462891 -0.202362000942230225 0.170881003141403198
0.253948003053665161 -0.203574001789093018 0.170857995748519897
0.256742000579833984 -0.204565003514289856 0.170840993523597717
0.259552985429763794 -0.20546799898147583 0.170825004577636719
0.262418985366821289 -0.206141993403434753 0.170816004276275635
0.265312999486923218 -0.206695005297660828 0.170809000730514526
0.268240988254547119 -0.207103997468948364 0.170805007219314575
0.271221011877059937 -0.207308992743492126 0.170807003974914551
0.274226993322372437 -0.207415997982025146 0.170810997486114502
0.277285993099212646 -0.207315996289253235 0.170819997787475586
0.28039899468421936 -0.207017004489898682 0.170835003256797791
0.283578008413314819 -0.206477999687194824 0.170855000615119934
0.286798000335693359 -0.205799996852874756 0.170877993106842041
0.290084004402160645 -0.204888999462127686 0.170907005667686462
0.293462991714477539 -0.203654006123542786 0.170944005250930786
0.296918988227844238 -0.202157005667686462 0.170987993478775024
0.300475001335144043 -0.200328007340431213 0.171039000153541565
0.304167985916137695 -0.198039993643760681 0.171102002263069153
0.30805400013923645 -0.195100992918014526 0.171180993318557739
0.312198013067245483 -0.191294997930526733 0.171281993389129639
-0.308881998062133789 -0.188828006386756897 0.172121003270149231
-0.305399000644683838 -0.192495003342628479 0.172036007046699524
-0.302058011293411255 -0.195426002144813538 0.171968996524810791
-0.298813998699188232 -0.197850003838539124 0.171914994716644287
-0.295643001794815063 -0.199903994798660278 0.171869993209838867
-0.292533010244369507 -0.201636001467704773 0.171832993626594543
-0.289487987756729126 -0.203014001250267029 0.171804994344711304
-0.286476999521255493 -0.204212993383407593 0.171781003475189209
-0.28350299596786499 -0.205210000276565552 0.171763002872467041
-0.280571997165679932 -0.205948993563652039 0.171751007437705994
-0.277660012245178223 -0.206584006547927856 0.171740993857383728
-0.274785995483398438 -0.206984996795654297 0.171737998723983765
-0.271930992603302002 -0.207259997725486755 0.171737998723983765
-0.269098013639450073 -0.207392007112503052 0.171740993857383728
-0.266288995742797852 -0.207361996173858643 0.171747997403144836
-0.263500005006790161 -0.207183003425598145 0.171759992837905884
-0.260729998350143433 -0.206856995820999146 0.171774998307228088
-0.257981002330780029 -0.206368997693061829 0.171793997287750244
-0.255246013402938843 -0.205764994025230408 0.171814993023872375
-0.252526998519897461 -0.205010995268821716 0.17184099555015564
-0.249826997518539429 -0.204081997275352478 0.171871006488800049
-0.24713599681854248 -0.203052997589111328 0.171903997659683228
-0.244472995400428772 -0.201772004365921021 0.171942993998527527
-0.241815000772476196 -0.200403004884719849 0.171984001994132996
-0.239182993769645691 -0.198771998286247253 0.172031998634338379
-0.236564993858337402 -0.19696199893951416 0.172085002064704895
-0.233960002660751343 -0.194983005523681641 0.172141999006271362
-0.231389999389648438 -0.192631006240844727 0.172207996249198914
-0.2288379967212677 -0.190034002065658569 0.172279998660087585
-0.227705001831054688 -0.175197005271911621 0.172662004828453064
-0.225397005677223206 -0.170040994882583618 0.172800004482269287
-0.0430900007486343384 -0.338234007358551025 0.168931007385253906
-0.0405550003051757812 -0.342009007930755615 0.168841004371643066
-0.0380199998617172241 -0.345185995101928711 0.16876499354839325
-0.035486999899148941 -0.347948998212814331 0.168700993061065674
-0.032956000417470932 -0.350405991077423096 0.168643996119499207
-0.0304240006953477859 -0.352508991956710815 0.168595999479293823
-0.0278910007327795029 -0.354366004467010498 0.168555006384849548
-0.0253609996289014816 -0.356083989143371582 0.168516993522644043
-0.0228250008076429367 -0.357495993375778198 0.168486997485160828
-0.0202910006046295166 -0.358806997537612915 0.168458998203277588
-0.0177529994398355484 -0.359928011894226074 0.168437004089355469
-0.015212000347673893 -0.360900014638900757 0.168418005108833313
-0.0126689998432993889 -0.361752986907958984 0.168402001261711121
-0.0101199997588992119 -0.362426996231079102 0.168391004204750061
-0.00756900012493133545 -0.363027006387710571 0.168382003903388977
-0.00500900018960237503 -0.363425999879837036 0.168376997113227844
-0.00244800001382827759 -0.363783985376358032 0.168374001979827881
0.000125000005937181413 -0.363941013813018799 0.168375998735427856
0.00270100007764995098 -0.364051997661590576 0.168380007147789001
0.00528899999335408211 -0.363976985216140747 0.168387994170188904
0.00788599997758865356 -0.363783985376358032 0.168399006128311157
0.0104930000379681587 -0.363460004329681396 0.16841299831867218
0.0131120001897215843 -0.362994998693466187 0.168430998921394348
0.0157430004328489304 -0.362419009208679199 0.168451994657516479
0.0183879993855953217 -0.361685007810592651 0.168476998805999756
0.0210500005632638931 -0.360789000988006592 0.168506994843482971
0.0237269997596740723 -0.359764993190765381 0.168539002537727356
0.0264299996197223663 -0.358489990234375 0.168577998876571655
0.0291479993611574173 -0.357106000185012817 0.168620005249977112
0.0318999998271465302 -0.355401009321212769 0.168669998645782471
0.034680001437664032 -0.353466987609863281 0.16872599720954895
0.0374919995665550232 -0.351287990808486938 0.168788999319076538
0.0403550006449222565 -0.348650991916656494 0.168862998485565186
0.0432780012488365173 -0.345512986183166504 0.168950006365776062
0.0462789982557296753 -0.341713994741439819 0.169054001569747925
0.0493980012834072113 -0.336876004934310913 0.16918499767780304
0.0527659989893436432 -0.329760998487472534 0.169375002384185791
0.228617995977401733 0.151632994413375854 0.182101994752883911
0.230922996997833252 0.143240004777908325 0.181893005967140198
0.233628004789352417 0.137271001935005188 0.181747004389762878
0.236558005213737488 0.132687002420425415 0.181636005640029907
0.239614993333816528 0.128891006112098694 0.181547001004219055
0.242765992879867554 0.125688999891281128 0.18147200345993042
0.245995000004768372 0.122961997985839844 0.18140999972820282
0.249293997883796692 0.120664998888969421 0.181358993053436279
0.252660989761352539 0.118762001395225525 0.181317999958992004
0.256081998348236084 0.117173999547958374 0.181286007165908813
0.259555011987686157 0.115877002477645874 0.181261003017425537
0.263078004121780396 0.114851996302604675 0.181243002414703369
0.266656011343002319 0.11411699652671814 0.181233003735542297
0.270301997661590576 0.113721996545791626 0.181231006979942322
0.22795499861240387 -0.155052006244659424 0.174257993698120117
0.229124993085861206 -0.164143994450569153 0.174027994275093079
0.230943992733955383 -0.17007000744342804 0.173880994319915771
0.233015000820159912 -0.174733996391296387 0.173767000436782837
0.235245004296302795 -0.178593993186950684 0.173673003911972046
0.237584993243217468 -0.181891992688179016 0.173594996333122253
0.240005999803543091 -0.184772998094558716 0.173527002334594727
0.242489993572235107 -0.187326997518539429 0.173466995358467102
0.24504600465297699 -0.189520999789237976 0.173417001962661743
0.24765700101852417 -0.191448003053665161 0.173373997211456299
0.250304996967315674 -0.193183004856109619 0.173335999250411987
0.25300300121307373 -0.194680005311965942 0.173304006457328796
0.255753010511398315 -0.195936992764472961 0.17327900230884552
0.25853198766708374 -0.197055995464324951 0.173256993293762207
0.261364012956619263 -0.197944000363349915 0.173241004347801208
0.264241009950637817 -0.198640003800392151 0.173230007290840149
0.2671470046043396 -0.199211001396179199 0.173222005367279053
0.270119011402130127 -0.19951300323009491 0.173221006989479065
0.273131012916564941 -0.199655994772911072 0.173225000500679016
0.276181012392044067 -0.199655994772911072 0.173232004046440125
0.279314011335372925 -0.199337005615234375 0.173247992992401123
0.282496988773345947 -0.198838993906974792 0.17326800525188446
0.285737991333007812 -0.198134005069732666 0.173293992877006531
0.289072990417480469 -0.197087004780769348 0.173327997326850891
0.292506009340286255 -0.195700004696846008 0.173372000455856323
0.296048998832702637 -0.193932995200157166 0.173425003886222839
0.299737006425857544 -0.191664993762969971 0.173491999506950378
0.303631991147994995 -0.188686996698379517 0.173577994108200073
0.307841002941131592 -0.184624001383781433 0.173691004514694214
0.312747001647949219 -0.178133994340896606 0.173868998885154724
-0.30813300609588623 -0.176651999354362488 0.174613997340202332
-0.304293006658554077 -0.182266995310783386 0.174471005797386169
-0.30075499415397644 -0.186253994703292847 0.174371004104614258
-0.297392994165420532 -0.189289003610610962 0.17429700493812561
-0.294147998094558716 -0.191700994968414307 0.174239993095397949
-0.290984004735946655 -0.193671002984046936 0.174193993210792542
-0.287883013486862183 -0.195307999849319458 0.174158006906509399
-0.284839987754821777 -0.196612998843193054 0.174129992723464966
-0.28185001015663147 -0.19761599600315094 0.174109995365142822
-0.278890997171401978 -0.198441997170448303 0.174095004796981812
-0.275967985391616821 -0.199043005704879761 0.174086004495620728
-0.273084014654159546 -0.199407994747161865 0.17408299446105957
-0.270217001438140869 -0.199655994772911072 0.174083992838859558
-0.267387986183166504 -0.199655994772911072 0.174090996384620667
-0.264578014612197876 -0.19951300323009491 0.174101993441581726
-0.261786013841629028 -0.199229001998901367 0.174116998910903931
-0.259025990962982178 -0.198706001043319702 0.174137994647026062
-0.256276994943618774 -0.198084995150566101 0.174162000417709351
-0.253556013107299805 -0.197231993079185486 0.174191996455192566
-0.250853002071380615 -0.196209996938705444 0.174226000905036926
-0.248162999749183655 -0.1950560063123703 0.174264997243881226
-0.245507001876831055 -0.193592995405197144 0.174310997128486633
-0.242864996194839478 -0.191965997219085693 0.174362003803253174
-0.240241006016731262 -0.190139994025230408 0.174418002367019653
-0.237654998898506165 -0.187930002808570862 0.174484997987747192
-0.235094994306564331 -0.185431003570556641 0.17455899715423584
-0.23256799578666687 -0.18256300687789917 0.174643993377685547
-0.230085998773574829 -0.17919999361038208 0.174740999937057495
-0.227671995759010315 -0.1751289963722229 0.174858003854751587
-0.225365996360778809 -0.169956997036933899 0.175005003809928894
-0.223260998725891113 -0.162792995572090149 0.175205007195472717
-0.0456099994480609894 -0.333552002906799316 0.17100900411605835
-0.0430780015885829926 -0.338254988193511963 0.170888006687164307
-0.0405430011451244354 -0.342025995254516602 0.170791998505592346
-0.0380089990794658661 -0.345200002193450928 0.170711994171142578
-0.035475999116897583 -0.347959995269775391 0.170643001794815063
-0.032944999635219574 -0.35041499137878418 0.170582994818687439
-0.0304129999130964279 -0.352517008781433105 0.170532003045082092
-0.0278810001909732819 -0.354373008012771606 0.17048799991607666
-0.0253509990870952606 -0.356088995933532715 0.170448005199432373
-0.0228160005062818527 -0.357501000165939331 0.170415997505187988
-0.0202820003032684326 -0.358812004327774048 0.170386001467704773
-0.0177439991384744644 -0.359932005405426025 0.170361995697021484
-0.015204000286757946 -0.360902994871139526 0.170341998338699341
-0.0126609997823834419 -0.361755013465881348 0.170325994491577148
-0.0101129999384284019 -0.362428992986679077 0.170313999056816101
-0.0075619998387992382 -0.363027989864349365 0.170304000377655029
-0.00500300014391541481 -0.363429009914398193 0.170298993587493896
-0.002440999960526824 -0.363786011934280396 0.170295998454093933
0.00013099999341648072 -0.363936007022857666 0.170298993587493896
0.00270699989050626755 -0.364051997661590576 0.170302003622055054
0.0052939997985959053 -0.363974004983901978 0.17031000554561615
0.00789100024849176407 -0.363781988620758057 0.170322000980377197
0.0104970000684261322 -0.363458991050720215 0.17033800482749939
0.0131170004606246948 -0.362993985414505005 0.170357003808021545
0.0157469995319843292 -0.362417012453079224 0.170378997921943665
0.0183920003473758698 -0.36168399453163147 0.170405998826026917
0.021053999662399292 -0.360787004232406616 0.17043699324131012
0.0237300004810094833 -0.359762996435165405 0.17047099769115448
0.0264320001006126404 -0.358487993478775024 0.170513004064559937
0.0291499998420476913 -0.357104986906051636 0.170557007193565369
0.0319009982049465179 -0.355399012565612793 0.170610994100570679
0.0346809998154640198 -0.353464990854263306 0.170670002698898315
0.0374930016696453094 -0.351285994052886963 0.170736998319625854
0.0403559990227222443 -0.348648995161056519 0.170816004276275635
0.0432780012488365173 -0.345510989427566528 0.17090800404548645
0.0462779998779296875 -0.341713011264801025 0.171019002795219421
0.049396999180316925 -0.336876004934310913 0.17115899920463562
0.0527650006115436554 -0.329762011766433716 0.171360000967979431
0.230909004807472229 0.143279001116752625 0.184672996401786804
0.233612000942230225 0.137301996350288391 0.184516996145248413
0.236541002988815308 0.132709994912147522 0.184400007128715515
0.239595994353294373 0.128911003470420837 0.184303998947143555
0.242746993899345398 0.12570500373840332 0.184224992990493774
0.24597400426864624 0.122977003455162048 0.184158995747566223
0.249273002147674561 0.120679996907711029 0.184104993939399719
0.25263899564743042 0.118775002658367157 0.184061005711555481
0.256058990955352783 0.117183998227119446 0.184027001261711121
0.259530991315841675 0.115883998572826385 0.184000000357627869
0.263052999973297119 0.114857003092765808 0.183981001377105713
0.266631007194519043 0.114122003316879272 0.183970004320144653
0.270274996757507324 0.113724000751972198 0.183967992663383484
0.227950006723403931 -0.154958993196487427 0.176556006073951721
0.229111000895500183 -0.164091005921363831 0.17631000280380249
0.230928003787994385 -0.170026004314422607 0.176153004169464111
0.232997998595237732 -0.174697995185852051 0.176032006740570068
0.23522600531578064 -0.17856299877166748 0.175932005047798157
0.237564995884895325 -0.181866005063056946 0.175848007202148438
0.239984005689620972 -0.184750005602836609 0.175776004791259766
0.242467001080513 -0.187307000160217285 0.175713002681732178
0.245022997260093689 -0.189501002430915833 0.175659000873565674
0.247632995247840881 -0.191431000828742981 0.175613000988960266
0.250279992818832397 -0.193168997764587402 0.175573006272315979
0.25297701358795166 -0.194665998220443726 0.175539001822471619
0.255726009607315063 -0.195925995707511902 0.175512000918388367
0.258504986763000488 -0.197046995162963867 0.175487995147705078
0.261335998773574829 -0.197935000061988831 0.175470992922782898
0.26421201229095459 -0.19863399863243103 0.175458997488021851
0.26711699366569519 -0.199208006262779236 0.175450995564460754
0.270087987184524536 -0.199509993195533752 0.175449997186660767
0.273099005222320557 -0.199655994772911072 0.175454005599021912
0.276149004697799683 -0.199655994772911072 0.175461992621421814
0.279280006885528564 -0.199340999126434326 0.175477996468544006
0.282462000846862793 -0.198845997452735901 0.175500005483627319
0.285701006650924683 -0.198145002126693726 0.175527006387710571
0.289036005735397339 -0.197099000215530396 0.175564005970954895
0.292466998100280762 -0.195715993642807007 0.175610005855560303
0.296007007360458374 -0.193956002593040466 0.17566700279712677
0.299692988395690918 -0.19169500470161438 0.175738006830215454
0.303584009408950806 -0.188728004693984985 0.1758279949426651
0.30778801441192627 -0.184679999947547913 0.175949007272720337
0.312678009271621704 -0.17824399471282959 0.176136001944541931
-0.308061003684997559 -0.17676900327205658 0.176789000630378723
-0.304226011037826538 -0.182354003190994263 0.176639005541801453
-0.300691992044448853 -0.186320006847381592 0.176533997058868408
-0.297333985567092896 -0.189339995384216309 0.17645600438117981
-0.294090986251831055 -0.191741004586219788 0.176394999027252197
-0.290930002927780151 -0.193700999021530151 0.176347002387046814
-0.287829995155334473 -0.195331007242202759 0.176308006048202515
-0.284788012504577637 -0.196636006236076355 0.176278993487358093
-0.281798988580703735 -0.197631999850273132 0.176257997751235962
-0.278840988874435425 -0.198452994227409363 0.176243007183074951
-0.27591899037361145 -0.199053004384040833 0.176232993602752686
-0.273036003112792969 -0.199413001537322998 0.176229998469352722
-0.270170986652374268 -0.199655994772911072 0.17623099684715271
-0.267340987920761108 -0.199655994772911072 0.176238998770713806
-0.264531999826431274 -0.199507996439933777 0.176249995827674866
-0.261741012334823608 -0.199223995208740234 0.176265999674797058
-0.258982986211776733 -0.198697000741958618 0.176289007067680359
-0.25623399019241333 -0.198072001338005066 0.176313996315002441
-0.253513991832733154 -0.197218000888824463 0.176346004009246826
-0.250811994075775146 -0.196192994713783264 0.17638300359249115
-0.24812200665473938 -0.195038005709648132 0.176422998309135437
-0.245467007160186768 -0.193571001291275024 0.176471993327140808
-0.242825999855995178 -0.191938996315002441 0.176525995135307312
-0.240201994776725769 -0.190112993121147156 0.176586002111434937
-0.237617000937461853 -0.187896996736526489 0.176657006144523621
-0.235057994723320007 -0.185393005609512329 0.176735997200012207
-0.232531994581222534 -0.182517006993293762 0.176825001835823059
-0.230051994323730469 -0.179143995046615601 0.176928997039794922
-0.227639004588127136 -0.175061002373695374 0.177053004503250122
-0.225335001945495605 -0.16987299919128418 0.177209004759788513
-0.223236992955207825 -0.162641003727912903 0.177423000335693359
-0.231517001986503601 0.132046997547149658 0.185892000794410706
-0.0426319986581802368 -0.317166000604629517 0.173453003168106079
-0.0401800014078617096 -0.326586991548538208 0.173188000917434692
-0.0376730002462863922 -0.332168996334075928 0.173033997416496277
-0.0351499989628791809 -0.336326003074645996 0.17292100191116333
-0.0326200015842914581 -0.339655011892318726 0.172831997275352478
-0.0300859995186328888 -0.342442989349365234 0.172757998108863831
-0.0275509990751743317 -0.344848990440368652 0.17269599437713623
-0.0250150002539157867 -0.346969008445739746 0.172641992568969727
-0.0224740002304315567 -0.348738014698028564 0.1725970059633255
-0.0202730000019073486 -0.358815014362335205 0.172313004732131958
-0.0177359990775585175 -0.359935998916625977 0.172287002205848694
-0.0151960002258419991 -0.360906004905700684 0.172266006469726562
-0.012653999961912632 -0.361757993698120117 0.172249004244804382
-0.010104999877512455 -0.362430006265640259 0.172235995531082153
-0.00755500001832842827 -0.363029986619949341 0.172225996851921082
-0.00499599985778331757 -0.363431006669998169 0.172221004962921143
-0.00243499991483986378 -0.363788008689880371 0.172216996550559998
0.000138000003062188625 -0.363931000232696533 0.172220006585121155
0.0027119999285787344 -0.364050000905990601 0.172224000096321106
0.00529999984428286552 -0.36397099494934082 0.17223300039768219
0.00789599958807229996 -0.363779008388519287 0.172244995832443237
0.0105020003393292427 -0.363458007574081421 0.17226099967956543
0.0131209995597600937 -0.362991988658905029 0.172281995415687561
0.0157510004937648773 -0.36241498589515686 0.172305002808570862
0.0183949992060661316 -0.361681997776031494 0.172334000468254089
0.0217020008713006973 -0.352205991744995117 0.172616004943847656
0.0244210008531808853 -0.350861012935638428 0.172662004828453064
0.0271630007773637772 -0.349328011274337769 0.172712996602058411
0.0299459993839263916 -0.347391009330749512 0.172775998711585999
0.0327650010585784912 -0.34512600302696228 0.172848999500274658
0.0356330014765262604 -0.342433005571365356 0.172933995723724365
0.0385680012404918671 -0.339123010635375977 0.173038005828857422
0.0416060015559196472 -0.334852010011672974 0.173169001936912537
0.044819999486207962 -0.328884989023208618 0.173348993062973022
0.228598996996879578 0.151758000254631042 0.187689006328582764
0.230894997715950012 0.143316999077796936 0.187452003359794617
0.233595997095108032 0.137335002422332764 0.187287002801895142
0.23652300238609314 0.132733002305030823 0.187161996960639954
0.239576995372772217 0.128931000828742981 0.187060996890068054
0.242726996541023254 0.125723004341125488 0.186976999044418335
0.245952993631362915 0.122991003096103668 0.186906993389129639
0.249252006411552429 0.120695002377033234 0.186848998069763184
0.252617001533508301 0.118786998093128204 0.186802998185157776
0.25603601336479187 0.117193996906280518 0.18676699697971344
0.25950700044631958 0.115892000496387482 0.186737999320030212
0.263027995824813843 0.114862002432346344 0.186718001961708069
0.266604989767074585 0.114127002656459808 0.186706006526947021
0.270249009132385254 0.113727003335952759 0.18670499324798584
0.229098007082939148 -0.164039000868797302 0.17859099805355072
0.230911999940872192 -0.169982999563217163 0.178424999117851257
0.232979997992515564 -0.174661993980407715 0.178295999765396118
0.235207006335258484 -0.178532004356384277 0.178189992904663086
0.237544000148773193 -0.181839004158973694 0.178101003170013428
0.239961996674537659 -0.184726998209953308 0.178023993968963623
0.2424439936876297 -0.187288001179695129 0.177956998348236084
0.245000004768371582 -0.189482003450393677 0.177900999784469604
0.247608006000518799 -0.191413998603820801 0.177852004766464233
0.250254005193710327 -0.193155005574226379 0.177809000015258789
0.252952009439468384 -0.194652006030082703 0.177772998809814453
0.255699992179870605 -0.195914000272750854 0.177744001150131226
0.258477002382278442 -0.197037994861602783 0.177718997001647949
0.261308014392852783 -0.197926998138427734 0.177700996398925781
0.264183014631271362 -0.19862799346446991 0.177689000964164734
0.267085999250411987 -0.199204996228218079 0.17768000066280365
0.270056992769241333 -0.199506998062133789 0.177679002285003662
0.273066997528076172 -0.199655994772911072 0.177682995796203613
0.276116013526916504 -0.199655994772911072 0.177690997719764709
0.279246985912322998 -0.19934399425983429 0.17770799994468689
0.282425999641418457 -0.198853999376296997 0.17773100733757019
0.285663992166519165 -0.198156997561454773 0.177760004997253418
0.288998007774353027 -0.197109997272491455 0.177799001336097717
0.292427003383636475 -0.195733994245529175 0.177846997976303101
0.295964986085891724 -0.193979993462562561 0.177907004952430725
0.299647986888885498 -0.191726997494697571 0.17798200249671936
0.303535997867584229 -0.18876899778842926 0.178077995777130127
-0.313277989625930786 -0.163240998983383179 0.179363995790481567
-0.307987987995147705 -0.176886007189750671 0.178964003920555115
-0.304159998893737793 -0.182439997792243958 0.178806006908416748
-0.300630003213882446 -0.186386004090309143 0.178694993257522583
-0.297275006771087646 -0.189391002058982849 0.178613007068634033
-0.294034004211425781 -0.191780000925064087 0.178550004959106445
-0.290874987840652466 -0.193731993436813354 0.178498998284339905
-0.28777700662612915 -0.195353001356124878 0.178459003567695618
-0.284734994173049927 -0.196658000349998474 0.178427994251251221
-0.281747996807098389 -0.197648003697395325 0.178406000137329102
-0.27879101037979126 -0.198462992906570435 0.178388997912406921
-0.275869995355606079 -0.199063003063201904 0.17837899923324585
-0.272987991571426392 -0.199417993426322937 0.178377002477645874
-0.270123988389968872 -0.199655994772911072 0.178378000855445862
-0.267295002937316895 -0.199655994772911072 0.178386002779006958
-0.264486998319625854 -0.199503004550933838 0.178397998213768005
-0.261696994304656982 -0.199220001697540283 0.178415000438690186
-0.258938997983932495 -0.198688000440597534 0.178439006209373474
-0.256190985441207886 -0.198057994246482849 0.178466007113456726
-0.25347098708152771 -0.197205007076263428 0.178498998284339905
-0.250770002603530884 -0.196174994111061096 0.178537994623184204
-0.248080000281333923 -0.195021003484725952 0.178580999374389648
-0.245425999164581299 -0.193549007177352905 0.178633004426956177
-0.242786005139350891 -0.191910997033119202 0.178690001368522644
-0.24016299843788147 -0.190081998705863953 0.17875400185585022
-0.237579002976417542 -0.187864005565643311 0.178828001022338867
-0.235020995140075684 -0.185352995991706848 0.178911998867988586
-0.232495993375778198 -0.182471007108688354 0.179006993770599365
-0.230017006397247314 -0.179088994860649109 0.179116994142532349
-0.227605998516082764 -0.174994006752967834 0.179248005151748657
-0.225303992629051208 -0.16978900134563446 0.179413005709648132
-0.223214000463485718 -0.162487998604774475 0.179640993475914001
-0.251145988702774048 0.116916999220848083 0.188066005706787109
-0.237885996699333191 0.125125005841255188 0.188353002071380615
-0.234656006097793579 0.128282994031906128 0.188457995653152466
-0.231475993990898132 0.132100000977516174 0.188583001494407654
-0.2283640056848526 0.13681599497795105 0.1887349933385849
-0.225389003753662109 0.143232002854347229 0.188939005136489868
-0.0426210016012191772 -0.317239999771118164 0.175440996885299683
-0.0401690006256103516 -0.326618999242782593 0.175163000822067261
-0.0376610010862350464 -0.332190990447998047 0.174999997019767761
-0.0351389981806278229 -0.336344003677368164 0.174880996346473694
-0.0326090008020401001 -0.339668005704879761 0.174786999821662903
-0.030076000839471817 -0.342453986406326294 0.174709007143974304
-0.0275410003960132599 -0.344857990741729736 0.174642994999885559
-0.0250059999525547028 -0.346976011991500854 0.174585998058319092
-0.0224649999290704727 -0.348744004964828491 0.174538999795913696
-0.0199219994246959686 -0.350286006927490234 0.174500003457069397
-0.0173780005425214767 -0.351684987545013428 0.174464002251625061
-0.0148259997367858887 -0.352780014276504517 0.174437999725341797
-0.0122729996219277382 -0.353769987821578979 0.17441500723361969
-0.00971399992704391479 -0.35457301139831543 0.17439800500869751
-0.00714799994602799416 -0.355203986167907715 0.174385994672775269
-0.00457900017499923706 -0.355731993913650513 0.174376994371414185
-0.00199900008738040924 -0.356034010648727417 0.174374997615814209
0.000584000023081898689 -0.356283009052276611 0.174374997615814209
0.00318200001493096352 -0.356283009052276611 0.174382001161575317
0.00578599981963634491 -0.356211990118026733 0.174391999840736389
0.00840300042182207108 -0.355946004390716553 0.174407005310058594
0.0110320001840591431 -0.355544000864028931 0.174427002668380737
0.0136730000376701355 -0.355001002550125122 0.174450993537902832
0.0163330007344484329 -0.354232996702194214 0.174482002854347229
0.0190060008317232132 -0.353363007307052612 0.174516007304191589
0.0217049997299909592 -0.352205008268356323 0.17455899715423584
0.0244239997118711472 -0.350859999656677246 0.174606993794441223
0.027165999636054039 -0.349326014518737793 0.174661993980407715
0.0299479998648166656 -0.34738999605178833 0.174729004502296448
0.0327670015394687653 -0.345124989748001099 0.174805000424385071
0.0356339998543262482 -0.342431992292404175 0.174895003437995911
0.0385689996182918549 -0.339123010635375977 0.175004005432128906
0.0416060015559196472 -0.334850996732711792 0.175143003463745117
0.044819999486207962 -0.328884989023208618 0.175334006547927856
0.230881005525588989 0.143354997038841248 0.190230995416641235
0.233581006526947021 0.137365996837615967 0.190055996179580688
0.236505001783370972 0.13275599479675293 0.189924001693725586
0.239558994770050049 0.128950998187065125 0.189816996455192566
0.242706999182701111 0.125738993287086487 0.189728006720542908
0.245932996273040771 0.123005002737045288 0.189653992652893066
0.249230995774269104 0.120710000395774841 0.189593002200126648
0.252595007419586182 0.118799000978469849 0.189545005559921265
0.256013005971908569 0.117204003036022186 0.189505994319915771
0.259483009576797485 0.115900002419948578 0.189475998282432556
0.263002991676330566 0.11486700177192688 0.189454004168510437
0.266579002141952515 0.114132001996040344 0.189441993832588196
0.270222008228302002 0.113729000091552734 0.18943999707698822
0.273919999599456787 0.113596998155117035 0.189446002244949341
0.277678996324539185 0.113748997449874878 0.189462006092071533
0.229083999991416931 -0.163985997438430786 0.18087199330329895
0.230896994471549988 -0.169939994812011719 0.180695995688438416
0.232961997389793396 -0.174625992774963379 0.18055899441242218
0.235188007354736328 -0.17850099503993988 0.180447995662689209
0.23752400279045105 -0.18181300163269043 0.18035300076007843
0.239941000938415527 -0.184704005718231201 0.180271998047828674
0.242421001195907593 -0.187268003821372986 0.18020099401473999
0.244976997375488281 -0.189462006092071533 0.180142000317573547
0.24758400022983551 -0.191396996378898621 0.180089995265007019
0.250229001045227051 -0.193140998482704163 0.180044993758201599
0.252925992012023926 -0.194637998938560486 0.180006995797157288
0.255672991275787354 -0.195903003215789795 0.179976001381874084
0.258448988199234009 -0.197029992938041687 0.179949000477790833
0.26128000020980835 -0.19791799783706665 0.179930001497268677
0.264153003692626953 -0.198622003197669983 0.179916992783546448
0.267055988311767578 -0.199202001094818115 0.179908007383346558
0.270027011632919312 -0.199504002928733826 0.179906994104385376
0.273034989833831787 -0.199655994772911072 0.179911002516746521
0.276084005832672119 -0.199655994772911072 0.179919004440307617
0.279213011264801025 -0.199348002672195435 0.179937005043029785
0.282391011714935303 -0.198861002922058105 0.17996099591255188
0.285627007484436035 -0.198167994618415833 0.179991006851196289
0.28896099328994751 -0.197121992707252502 0.180032998323440552
0.292387992143630981 -0.195749998092651367 0.180084004998207092
0.295924007892608643 -0.194002002477645874 0.18014700710773468
0.29960399866104126 -0.191756993532180786 0.180225998163223267
-0.313107997179031372 -0.163896992802619934 0.181541994214057922
-0.307915002107620239 -0.177002996206283569 0.181136995553970337
-0.304093003273010254 -0.182526007294654846 0.180971994996070862
-0.30056801438331604 -0.186451002955436707 0.180856004357337952
-0.29721599817276001 -0.189441993832588196 0.180769994854927063
-0.293978005647659302 -0.191819995641708374 0.180703997611999512
-0.290820002555847168 -0.193762004375457764 0.180650994181632996
-0.28772398829460144 -0.195375993847846985 0.180608004331588745
-0.284682989120483398 -0.196680992841720581 0.18057599663734436
-0.281697005033493042 -0.197663992643356323 0.180553004145622253
-0.278741985559463501 -0.1984730064868927 0.180536001920700073
-0.275821000337600708 -0.199073001742362976 0.180525004863739014
-0.272940009832382202 -0.199422001838684082 0.180522993206977844
-0.270076990127563477 -0.199655994772911072 0.180524006485939026
-0.267248988151550293 -0.199655994772911072 0.180531993508338928
-0.264441996812820435 -0.199498996138572693 0.180545002222061157
-0.261651992797851562 -0.19921499490737915 0.180563002824783325
-0.258895009756088257 -0.19867900013923645 0.180588006973266602
-0.256148993968963623 -0.198045000433921814 0.180617004632949829
-0.253428995609283447 -0.197190999984741211 0.180651992559432983
-0.250728994607925415 -0.196156993508338928 0.180693000555038452
-0.248040005564689636 -0.194998994469642639 0.180738002061843872
-0.245386004447937012 -0.193525999784469604 0.180793002247810364
-0.242746993899345398 -0.19188399612903595 0.180853992700576782
-0.24012400209903717 -0.19004899263381958 0.180921003222465515
-0.23754100501537323 -0.187831997871398926 0.180998995900154114
-0.23498399555683136 -0.185313999652862549 0.181088000535964966
-0.232460007071495056 -0.182423993945121765 0.181188002228736877
-0.229982003569602966 -0.179032996296882629 0.181303992867469788
-0.227573007345199585 -0.174925997853279114 0.181443005800247192
-0.225271999835968018 -0.169705003499984741 0.181617006659507751
-0.223190993070602417 -0.162334993481636047 0.181859001517295837
-0.23784300684928894 0.125162005424499512 0.191030994057655334
-0.23461499810218811 0.12832699716091156 0.191141992807388306
-0.231435000896453857 0.132152006030082703 0.191274002194404602
-0.228324994444847107 0.136878997087478638 0.191434994339942932
-0.225353002548217773 0.143328994512557983 0.19165000319480896
-0.0401570014655590057 -0.326649993658065796 0.177136003971099854
-0.0376500003039836884 -0.332215011119842529 0.176965996623039246
-0.0351280011236667633 -0.33636099100112915 0.176840007305145264
-0.0325989983975887299 -0.339682012796401978 0.17674100399017334
-0.030066000297665596 -0.342465013265609741 0.176660001277923584
-0.0275309998542070389 -0.344866007566452026 0.176589995622634888
-0.0249959994107484818 -0.346982985734939575 0.176530003547668457
-0.0224559996277093887 -0.3487510085105896 0.176480993628501892
-0.0199129991233348846 -0.350291013717651367 0.176439002156257629
-0.0173690002411603928 -0.351689010858535767 0.176402002573013306
-0.0148179996758699417 -0.352784007787704468 0.176374003291130066
-0.0122649995610117912 -0.353772014379501343 0.176349997520446777
-0.00970599986612796783 -0.354575008153915405 0.176331996917724609
-0.00714100012555718422 -0.355204999446868896 0.176319003105163574
-0.00457199988886713982 -0.355733007192611694 0.17631000280380249
-0.00199200003407895565 -0.356034994125366211 0.176308006048202515
0.000590000010561197996 -0.35628199577331543 0.176308006048202515
0.00318800006061792374 -0.356283009052276611 0.176315993070602417
0.00579100009053945541 -0.356211990118026733 0.176326006650924683
0.00840799976140260696 -0.355946004390716553 0.176341995596885681
0.0110370004549622536 -0.355542987585067749 0.176363006234169006
0.013677000068128109 -0.35499998927116394 0.176387995481491089
0.0163369998335838318 -0.35423201322555542 0.176420003175735474
0.019008999690413475 -0.353361010551452637 0.17645600438117981
0.0217080004513263702 -0.352203011512756348 0.176501005887985229
0.0244270004332065582 -0.350858002901077271 0.176552996039390564
0.027168000116944313 -0.349325001239776611 0.176609992980957031
0.0299500003457069397 -0.347387999296188354 0.176679998636245728
0.0327689982950687408 -0.345124006271362305 0.176761001348495483
0.035634998232126236 -0.342429995536804199 0.176855996251106262
0.0385700017213821411 -0.339121013879776001 0.176971003413200378
0.0416060015559196472 -0.334850013256072998 0.177117004990577698
0.230866998434066772 0.143392994999885559 0.193008005619049072
0.233565002679824829 0.137398004531860352 0.192824006080627441
0.236487001180648804 0.13277900218963623 0.192684993147850037
0.239539995789527893 0.128970995545387268 0.19257199764251709
0.242687001824378967 0.125755995512008667 0.192478001117706299
0.24591200053691864 0.123020000755786896 0.192399993538856506
0.249210000038146973 0.120724998414516449 0.192335993051528931
0.252573013305664062 0.118810996413230896 0.192285001277923584
0.255989998579025269 0.117214001715183258 0.192243993282318115
0.259458988904953003 0.115906998515129089 0.192212000489234924
0.26297798752784729 0.114872999489307404 0.192190006375312805
0.266553997993469238 0.114137999713420868 0.192176997661590576
0.270195990800857544 0.113732002675533295 0.192175000905990601
0.273892998695373535 0.113596998155117035 0.192181006073951721
0.277649998664855957 0.113747000694274902 0.19219699501991272
0.232943996787071228 -0.174590006470680237 0.182822003960609436
0.235167995095252991 -0.178470000624656677 0.182705000042915344
0.237503007054328918 -0.181786000728607178 0.182604998350143433
0.239919006824493408 -0.184681996703147888 0.182520002126693726
0.242397993803024292 -0.18724900484085083 0.18244500458240509
0.244954004883766174 -0.189441993832588196 0.182382002472877502
0.247559994459152222 -0.19137999415397644 0.182328000664710999
0.250203996896743774 -0.19312700629234314 0.182279005646705627
0.252900004386901855 -0.194622993469238281 0.182239994406700134
0.255645990371704102 -0.195892006158828735 0.182207003235816956
0.258421987295150757 -0.197020992636680603 0.182179003953933716
0.261251986026763916 -0.197908997535705566 0.182159006595611572
0.264124006032943726 -0.198615998029708862 0.182144999504089355
0.267024993896484375 -0.19919799268245697 0.182135000824928284
0.269995987415313721 -0.199499994516372681 0.182134002447128296
0.27300301194190979 -0.199655994772911072 0.182137995958328247
0.27605101466178894 -0.199655994772911072 0.182146996259689331
0.279179006814956665 -0.199350997805595398 0.182165995240211487
0.282355993986129761 -0.198868006467819214 0.182190999388694763
0.285589993000030518 -0.198180004954338074 0.182223007082939148
0.288922995328903198 -0.197134003043174744 0.182265996932983398
0.292347997426986694 -0.195767000317573547 0.182319998741149902
0.295881986618041992 -0.194025993347167969 0.182385995984077454
0.303440988063812256 -0.188850998878479004 0.182575002312660217
-0.312938004732131958 -0.164551004767417908 0.183716997504234314
-0.307841986417770386 -0.177119001746177673 0.183310002088546753
-0.304026991128921509 -0.182612001895904541 0.183136999607086182
-0.300505012273788452 -0.18651600182056427 0.183016002178192139
-0.297156006097793579 -0.189493000507354736 0.182925999164581299
-0.293920993804931641 -0.191859006881713867 0.182857006788253784
-0.290766000747680664 -0.193792998790740967 0.182802006602287292
-0.287670999765396118 -0.195399001240730286 0.182757005095481873
-0.284630000591278076 -0.196703001856803894 0.182723000645637512
-0.281646013259887695 -0.197679996490478516 0.182698994874954224
-0.27869299054145813 -0.198483005166053772 0.182680994272232056
-0.275772005319595337 -0.199083000421524048 0.182669997215270996
-0.272893011569976807 -0.199428007006645203 0.182668000459671021
-0.270031005144119263 -0.199655994772911072 0.182668998837471008
-0.267201989889144897 -0.199655994772911072 0.182677999138832092
-0.264396995306015015 -0.199494004249572754 0.182692006230354309
-0.261606991291046143 -0.199211001396179199 0.182710006833076477
-0.258850991725921631 -0.198669999837875366 0.182736992835998535
-0.256105989217758179 -0.198030993342399597 0.182767003774642944
-0.253385990858078003 -0.197178006172180176 0.182804003357887268
-0.250687003135681152 -0.19613899290561676 0.1828480064868927
-0.247998997569084167 -0.194976001977920532 0.182895004749298096
-0.245345994830131531 -0.193504005670547485 0.182953000068664551
-0.242707997560501099 -0.191856995224952698 0.183017000555992126
-0.240086004137992859 -0.190016001462936401 0.183087006211280823
-0.237503007054328918 -0.187799006700515747 0.183170005679130554
-0.234946995973587036 -0.18527500331401825 0.183263003826141357
-0.23242400586605072 -0.18237699568271637 0.183367997407913208
-0.229947999119758606 -0.17897699773311615 0.183489993214607239
-0.227540001273155212 -0.174859002232551575 0.183636993169784546
-0.225241005420684814 -0.169620007276535034 0.183819994330406189
-0.223167002201080322 -0.162182003259658813 0.184076994657516479
-0.241067007184028625 0.122538000345230103 0.193608000874519348
-0.237801000475883484 0.125198006629943848 0.19370800256729126
-0.234573006629943848 0.128371000289916992 0.193825006484985352
-0.23139500617980957 0.132204994559288025 0.193964004516601562
-0.22828499972820282 0.136941999197006226 0.194132998585700989
-0.225317999720573425 0.143426001071929932 0.194361001253128052
-0.2227029949426651 0.154100000858306885 0.194728001952171326
-0.0376389995217323303 -0.332237988710403442 0.178929999470710754
-0.0351170003414154053 -0.336378991603851318 0.17879900336265564
-0.0325880013406276703 -0.339695990085601807 0.178694993257522583
-0.030054999515414238 -0.342476010322570801 0.178608998656272888
-0.0275209993124008179 -0.34487500786781311 0.178535997867584229
-0.02498600073158741 -0.34698900580406189 0.178472995758056641
-0.0224459990859031677 -0.348756998777389526 0.178421005606651306
-0.0199040006846189499 -0.350295990705490112 0.178378000855445862
-0.0173610001802444458 -0.351693004369735718 0.178338006138801575
-0.0148099996149539948 -0.352788001298904419 0.178310006856918335
-0.0122570004314184189 -0.353774994611740112 0.178284004330635071
-0.0096990000456571579 -0.354577004909515381 0.178265005350112915
-0.00713399983942508698 -0.355206996202468872 0.178251996636390686
-0.0045659998431801796 -0.35573500394821167 0.178241997957229614
-0.00198599998839199543 -0.356036007404327393 0.178240001201629639
0.000597000005654990673 -0.356283009052276611 0.178240001201629639
0.00319400010630488396 -0.356283009052276611 0.178248003125190735
0.00579700013622641563 -0.356211006641387939 0.178259000182151794
0.00841300003230571747 -0.355944991111755371 0.178276002407073975
0.0110409995540976524 -0.355542004108428955 0.178297996520996094
0.0136820003390312195 -0.354999005794525146 0.178323999047279358
0.0163410007953643799 -0.354229986667633057 0.178358003497123718
0.0190130006521940231 -0.353359997272491455 0.17839600145816803
0.0217109993100166321 -0.352201998233795166 0.178442999720573425
0.0244299992918968201 -0.350856989622116089 0.178497001528739929
0.0271700005978345871 -0.349323004484176636 0.17855699360370636
0.0299520008265972137 -0.347386986017227173 0.178630992770195007
0.0327700003981590271 -0.345122009515762329 0.178716003894805908
0.03563699871301651 -0.342429012060165405 0.17881600558757782
0.0385700017213821411 -0.339120000600814819 0.178937003016471863
0.041606999933719635 -0.334850013256072998 0.179089993238449097
0.044819999486207962 -0.328884989023208618 0.179300993680953979
0.23085300624370575 0.143430992960929871 0.195785999298095703
0.233548998832702637 0.13743099570274353 0.195592001080513
0.236469998955726624 0.132801994681358337 0.195445001125335693
0.239520996809005737 0.128989994525909424 0.195326000452041626
0.242668002843856812 0.125772997736930847 0.19522799551486969
0.245891004800796509 0.123034000396728516 0.195145994424819946
0.249189004302024841 0.120738998055458069 0.195078998804092407
0.252550005912780762 0.118823997676372528 0.195024996995925903
0.255966991186141968 0.11722400039434433 0.194982007145881653
0.259434998035430908 0.115914002060890198 0.194948002696037292
0.262953013181686401 0.114877998828887939 0.194923996925354004
0.266528010368347168 0.114142999053001404 0.194911003112792969
0.270168989896774292 0.113734997808933258 0.194907993078231812
0.273865014314651489 0.113596998155117035 0.19491499662399292
0.277621001005172729 0.113743998110294342 0.1949319988489151
0.281444013118743896 0.114197999238967896 0.194958999752998352
0.232926994562149048 -0.174554005265235901 0.185084998607635498
0.235148996114730835 -0.178440004587173462 0.184961006045341492
0.237481996417045593 -0.181759998202323914 0.184855997562408447
0.239896997809410095 -0.184659004211425781 0.184765994548797607
0.242375999689102173 -0.187228992581367493 0.184688001871109009
0.244930997490882874 -0.189421996474266052 0.184622004628181458
0.247536003589630127 -0.191364005208015442 0.184563994407653809
0.250178992748260498 -0.193112999200820923 0.18451400101184845
0.252875000238418579 -0.194609001278877258 0.184471994638442993
0.255620002746582031 -0.195879995822906494 0.184438005089759827
0.258394002914428711 -0.197012007236480713 0.184407994151115417
0.26122400164604187 -0.197899997234344482 0.184386998414993286
0.264095008373260498 -0.198609992861747742 0.184371992945671082
0.266995012760162354 -0.199195995926856995 0.184360995888710022
0.269964993000030518 -0.199496999382972717 0.184360995888710022
0.272971004247665405 -0.199655994772911072 0.184365004301071167
0.276019006967544556 -0.199655994772911072 0.184374004602432251
0.279145002365112305 -0.199353992938995361 0.184394001960754395
0.282319992780685425 -0.198874995112419128 0.184420004487037659
0.285553008317947388 -0.198192000389099121 0.184452995657920837
0.288886010646820068 -0.197145998477935791 0.184498995542526245
0.292308986186981201 -0.195784002542495728 0.184554994106292725
0.295839995145797729 -0.19404900074005127 0.184624999761581421
0.299515008926391602 -0.191818997263908386 0.184710994362831116
0.303393006324768066 -0.188892006874084473 0.184821993112564087
0.307579994201660156 -0.184899002313613892 0.184970006346702576
0.312406003475189209 -0.17868100106716156 0.185194000601768494
-0.312768995761871338 -0.165205001831054688 0.185889005661010742
-0.307770013809204102 -0.177236005663871765 0.185480996966362
