ply
format ascii 1.0
element vertex 737
property float x
property float y
property float z
end_header
-0.00952200032770633698 -0.354631990194320679 0.196003004908561707
-0.0064929998479783535 -0.355338007211685181 0.196002006530761719
-0.00337700010277330875 -0.355893999338150024 0.196000993251800537
-0.000128999992739409208 -0.356224000453948975 0.195999994874000549
0.00327800004743039608 -0.35628199577331543 0.195996999740600586
0.00682500004768371582 -0.356106996536254883 0.19599500298500061
0.010545000433921814 -0.355643004179000854 0.195991992950439453
0.0144870001822710037 -0.354811996221542358 0.195987999439239502
0.0187289994210004807 -0.353480994701385498 0.195984005928039551
0.0234089996665716171 -0.351422995328903198 0.19597800076007843
0.0287900008261203766 -0.348194986581802368 0.195970997214317322
0.0357629992067813873 -0.342296004295349121 0.195959001779556274
0.228089004755020142 -0.149807006120681763 0.195586994290351868
0.228029996156692505 -0.156532004475593567 0.195595994591712952
0.228690996766090393 -0.162099003791809082 0.19560299813747406
0.229835003614425659 -0.166887000203132629 0.195608004927635193
0.231330007314682007 -0.171109005808830261 0.195612996816635132
0.23309500515460968 -0.174896001815795898 0.195617005228996277
0.23508000373840332 -0.178327992558479309 0.19562000036239624
0.237251996994018555 -0.181462004780769348 0.195622995495796204
0.239589005708694458 -0.18433399498462677 0.195625007152557373
0.242083996534347534 -0.186958000063896179 0.195627003908157349
0.244772002100944519 -0.189285993576049805 0.195628002285957336
0.247595995664596558 -0.191404998302459717 0.195629000663757324
0.25055500864982605 -0.19332200288772583 0.195629999041557312
0.253650009632110596 -0.195033997297286987 0.195629999041557312
0.256947994232177734 -0.196449995040893555 0.195629999041557312
0.260401010513305664 -0.197641998529434204 0.195629000663757324
0.264021992683410645 -0.198595002293586731 0.195628002285957336
0.26783299446105957 -0.199279993772506714 0.195626005530357361
0.271865010261535645 -0.199655994772911072 0.195623993873596191
0.276169002056121826 -0.199655994772911072 0.195621997117996216
0.280813992023468018 -0.199184998869895935 0.195618003606796265
0.285925000905990601 -0.198073998093605042 0.195612996816635132
-0.314157992601394653 0.157095000147819519 0.198293000459671021
-0.312568992376327515 0.147277995944023132 0.198292002081871033
-0.310290008783340454 0.140837997198104858 0.198291003704071045
-0.307704001665115356 0.135912001132965088 0.198291003704071045
-0.304946005344390869 0.131830006837844849 0.198290005326271057
-0.302060991525650024 0.128373995423316956 0.198290005326271057
-0.299073994159698486 0.125406995415687561 0.198289006948471069
-0.296003013849258423 0.122842997312545776 0.198289006948471069
-0.292851001024246216 0.120649002492427826 0.198289006948471069
-0.289617002010345459 0.11882299929857254 0.198289006948471069
-0.286318987607955933 0.117274999618530273 0.198289006948471069
-0.282961010932922363 0.115985997021198273 0.198289006948471069
-0.279541999101638794 0.114945001900196075 0.198289006948471069
-0.276044011116027832 0.114225998520851135 0.198290005326271057
-0.272475987672805786 0.113783001899719238 0.198290005326271057
-0.268839985132217407 0.113596998155117035 0.198290005326271057
-0.265130996704101562 0.113683998584747314 0.198290005326271057
-0.26133999228477478 0.114072002470493317 0.198291003704071045
-0.257436007261276245 0.114873997867107391 0.198291003704071045
-0.253423988819122314 0.11606299877166748 0.198292002081871033
-0.249281004071235657 0.117716997861862183 0.198292002081871033
-0.314051985740661621 -0.149256005883216858 0.198243007063865662
-0.313757985830307007 -0.160265997052192688 0.198240995407104492
-0.312348008155822754 -0.166832000017166138 0.198239997029304504
-0.31055799126625061 -0.171868994832038879 0.198239997029304504
-0.308539986610412598 -0.175983995199203491 0.198238998651504517
-0.306369006633758545 -0.179481998085975647 0.198238998651504517
-0.304087013006210327 -0.182532995939254761 0.198238000273704529
-0.301719993352890015 -0.185239002108573914 0.198238000273704529
-0.2992820143699646 -0.187666997313499451 0.198238000273704529
-0.296772986650466919 -0.189821004867553711 0.198238000273704529
-0.294183999300003052 -0.191676005721092224 0.198238000273704529
-0.291548997163772583 -0.193357005715370178 0.198238000273704529
-0.288861989974975586 -0.194848999381065369 0.198238000273704529
-0.286098986864089966 -0.196072995662689209 0.198238000273704529
-0.283295989036560059 -0.197162002325057983 0.198238000273704529
-0.280436009168624878 -0.198058992624282837 0.198238000273704529
-0.277507990598678589 -0.198725998401641846 0.198238000273704529
-0.274536013603210449 -0.19925999641418457 0.198238000273704529
-0.271495014429092407 -0.199569001793861389 0.198238000273704529
-0.268380999565124512 -0.199655994772911072 0.198238000273704529
-0.265211999416351318 -0.199577003717422485 0.198238998651504517
-0.261959999799728394 -0.199246004223823547 0.198238998651504517
-0.258608996868133545 -0.198620006442070007 0.198238998651504517
-0.255169987678527832 -0.197738006711006165 0.198239997029304504
-0.251621991395950317 -0.196539998054504395 0.198239997029304504
-0.247936993837356567 -0.194940999150276184 0.198240995407104492
-0.244063004851341248 -0.192791998386383057 0.198240995407104492
-0.239932000637054443 -0.189884006977081299 0.19824199378490448
-0.235381007194519043 -0.185732007026672363 0.198243007063865662
-0.0431910008192062378 0.316220998764038086 0.198340997099876404
-0.0420950017869472504 0.30625799298286438 0.198339998722076416
-0.0399810001254081726 0.299380987882614136 0.198339000344276428
-0.0374299995601177216 0.293843001127243042 0.19833800196647644
-0.0345400013029575348 0.289332002401351929 0.19833800196647644
-0.0314319990575313568 0.285479992628097534 0.198337003588676453
-0.0281450003385543823 0.282166987657546997 0.198337003588676453
-0.0247000008821487427 0.279318004846572876 0.198337003588676453
-0.0211130008101463318 0.276881992816925049 0.198337003588676453
-0.0173920001834630966 0.274827003479003906 0.198337003588676453
-0.0135279996320605278 0.273169010877609253 0.198337003588676453
-0.00953000038862228394 0.271876007318496704 0.198337003588676453
-0.00539699988439679146 0.270942002534866333 0.198337003588676453
-0.00112300005275756121 0.270383000373840332 0.198337003588676453
0.00330700003542006016 0.270224004983901978 0.19833800196647644
0.00791199970990419388 0.270509988069534302 0.19833800196647644
0.0127210002392530441 0.271310001611709595 0.198339000344276428
0.0177759993821382523 0.272725999355316162 0.198339000344276428
0.0231519993394613266 0.274940013885498047 0.198339998722076416
0.0290660001337528229 0.278503000736236572 0.198340997099876404
0.0358840003609657288 0.284337997436523438 0.198342993855476379
-0.0430120006203651428 -0.000743000011425465345 0.198289006948471069
-0.0419129990041255951 -0.00769399991258978844 0.198287993669509888
-0.0402380004525184631 -0.0131780002266168594 0.1982869952917099
-0.0382229983806610107 -0.0177939999848604202 0.1982869952917099
-0.0359590016305446625 -0.0217739995568990707 0.198285996913909912
-0.0335009992122650146 -0.0252630002796649933 0.198285996913909912
-0.0308839995414018631 -0.02835099957883358 0.198285996913909912
-0.0281300004571676254 -0.0310989990830421448 0.198284998536109924
-0.0252550002187490463 -0.0335489995777606964 0.198284998536109924
-0.0222350005060434341 -0.0356509983539581299 0.198284998536109924
-0.0191019997000694275 -0.0374870002269744873 0.198284998536109924
-0.0158660002052783966 -0.0390809997916221619 0.198284998536109924
-0.0125259999185800552 -0.0404370017349720001 0.198284998536109924
-0.00906599964946508408 -0.0415229983627796173 0.198284998536109924
-0.00546499993652105331 -0.0422969982028007507 0.198284998536109924
-0.00174300000071525574 -0.0428070016205310822 0.198285996913909912
0.00211400003172457218 -0.0430289991199970245 0.198285996913909912
0.00612499983981251717 -0.0429250001907348633 0.198285996913909912
0.0103179998695850372 -0.0424369983375072479 0.1982869952917099
0.0147360004484653473 -0.0414809994399547577 0.1982869952917099
0.0194439999759197235 -0.0399219989776611328 0.198287993669509888
0.0245479997247457504 -0.0375379994511604309 0.198289006948471069
0.0302390009164810181 -0.0339340008795261383 0.198290005326271057
0.0373210012912750244 -0.0274039991199970245 0.198291003704071045
-0.0415659993886947632 -0.298467010259628296 0.198239997029304504
-0.0430880002677440643 -0.30827099084854126 0.198238998651504517
-0.042973000556230545 -0.314767003059387207 0.198238000273704529
-0.0421850010752677917 -0.319896996021270752 0.198237001895904541
-0.0410340018570423126 -0.324279993772506714 0.198236003518104553
-0.0396150015294551849 -0.328112006187438965 0.198236003518104553
-0.0379900000989437103 -0.331521004438400269 0.198235005140304565
-0.0362129993736743927 -0.334618985652923584 0.198235005140304565
-0.0343139991164207458 -0.337466001510620117 0.198234006762504578
-0.0322970002889633179 -0.340072005987167358 0.198234006762504578
-0.0301350001245737076 -0.342391997575759888 0.198234006762504578
-0.0278939995914697647 -0.344554990530014038 0.198234006762504578
-0.0255679991096258163 -0.346551001071929932 0.198234006762504578
-0.023110000416636467 -0.348295003175735474 0.198234006762504578
-0.0205879993736743927 -0.349914997816085815 0.198234006762504578
-0.0179740004241466522 -0.351366013288497925 0.198234006762504578
-0.0152439996600151062 -0.352600991725921631 0.198234006762504578
-0.0124460002407431602 -0.353715002536773682 0.198234006762504578
-0.00953499972820281982 -0.354627996683120728 0.198234006762504578
-0.00650800019502639771 -0.355334997177124023 0.198234006762504578
-0.00339299999177455902 -0.355892002582550049 0.198234006762504578
-0.000146000005770474672 -0.356222987174987793 0.198234006762504578
0.00325899990275502205 -0.35628199577331543 0.198234006762504578
0.00680499989539384842 -0.356108993291854858 0.198235005140304565
0.0105229998007416725 -0.355648010969161987 0.198235005140304565
0.0144619997590780258 -0.354820013046264648 0.198236003518104553
0.018704000860452652 -0.353489011526107788 0.198236003518104553
0.0233769994229078293 -0.351440995931625366 0.198237001895904541
0.0287519991397857666 -0.34822198748588562 0.198238000273704529
0.0357020013034343719 -0.342359989881515503 0.198238998651504517
0.228092998266220093 -0.149733006954193115 0.1982869952917099
0.228027001023292542 -0.156468003988265991 0.198284998536109924
0.228682994842529297 -0.162042006850242615 0.198284998536109924
0.22982199490070343 -0.166835993528366089 0.198284000158309937
0.231313005089759827 -0.171064004302024841 0.198283001780509949
0.233073994517326355 -0.174853995442390442 0.198283001780509949
0.23505699634552002 -0.178290992975234985 0.198282003402709961
0.237225994467735291 -0.181428000330924988 0.198282003402709961
0.239559993147850037 -0.184303000569343567 0.198282003402709961
0.242054000496864319 -0.186927005648612976 0.198281005024909973
0.244738996028900146 -0.189257994294166565 0.198281005024909973
0.247560992836952209 -0.19137999415397644 0.198281005024909973
0.250515997409820557 -0.193299993872642517 0.198281005024909973
0.253607988357543945 -0.195015996694564819 0.198281005024909973
0.25690498948097229 -0.196431994438171387 0.198281005024909973
0.260354995727539062 -0.197626993060112 0.198281005024909973
0.263972014188766479 -0.198585003614425659 0.198281005024909973
0.267778009176254272 -0.199275001883506775 0.198282003402709961
0.271806001663208008 -0.199655994772911072 0.198282003402709961
0.276109009981155396 -0.199655994772911072 0.198282003402709961
0.280748993158340454 -0.199191004037857056 0.198283001780509949
0.28584599494934082 -0.198099002242088318 0.198283001780509949
-0.31252598762512207 0.147110000252723694 0.20103900134563446
-0.31023600697517395 0.140726000070571899 0.201030001044273376
-0.307646006345748901 0.135819002985954285 0.201023995876312256
-0.304886013269424438 0.131751999258995056 0.201020002365112305
-0.301999002695083618 0.128308996558189392 0.201017007231712341
-0.299010992050170898 0.125352993607521057 0.201013997197151184
-0.295937985181808472 0.122798003256320953 0.201012998819351196
-0.292786985635757446 0.120604999363422394 0.201011002063751221
-0.289552003145217896 0.118786998093128204 0.201011002063751221
-0.286253005266189575 0.117247000336647034 0.201011002063751221
-0.282893985509872437 0.115965001285076141 0.201012000441551208
-0.279473990201950073 0.114931002259254456 0.201012998819351196
-0.275976985692977905 0.114211998879909515 0.201013997197151184
-0.272406995296478271 0.11377599835395813 0.201017007231712341
-0.268770009279251099 0.113596998155117035 0.201019003987312317
-0.265060007572174072 0.113692000508308411 0.20102199912071228
-0.261267006397247314 0.114086002111434937 0.201025992631912231
-0.257364004850387573 0.114889003336429596 0.201030001044273376
-0.253349989652633667 0.116085998713970184 0.201034992933273315
-0.313737988471984863 -0.16040000319480896 0.200537994503974915
-0.31231999397277832 -0.166935995221138 0.200527995824813843
-0.310523003339767456 -0.171940997242927551 0.200522005558013916
-0.308506011962890625 -0.176054000854492188 0.200516000390052795
-0.306333005428314209 -0.179541006684303284 0.200512006878852844
-0.304048985242843628 -0.182582005858421326 0.200508996844291687
-0.301679998636245728 -0.185280993580818176 0.200507000088691711
-0.299241006374359131 -0.187702000141143799 0.200505003333091736
-0.296732008457183838 -0.189855992794036865 0.20050300657749176
-0.294142007827758789 -0.191704005002975464 0.200501993298530579
-0.29150700569152832 -0.193380996584892273 0.200501993298530579
-0.288819998502731323 -0.194872006773948669 0.200500994920730591
-0.286056011915206909 -0.196090996265411377 0.200501993298530579
-0.283253014087677002 -0.197175994515419006 0.200501993298530579
-0.280393987894058228 -0.198072999715805054 0.20050300657749176
-0.277464002370834351 -0.19873499870300293 0.200504004955291748
-0.274491995573043823 -0.199264004826545715 0.200506001710891724
-0.271450996398925781 -0.199573993682861328 0.200507998466491699
-0.268335998058319092 -0.199655994772911072 0.200509995222091675
-0.265166014432907104 -0.199571996927261353 0.200513005256652832
-0.261914998292922974 -0.199241995811462402 0.200516000390052795
-0.258563011884689331 -0.198611006140708923 0.200518995523452759
-0.255122989416122437 -0.19772300124168396 0.200524002313613892
-0.251574009656906128 -0.196519002318382263 0.200527995824813843
-0.247886002063751221 -0.194912999868392944 0.200534000992774963
-0.244012996554374695 -0.192763999104499817 0.200540006160736084
-0.239876002073287964 -0.189835995435714722 0.200547993183135986
-0.235320001840591431 -0.185668006539344788 0.20055900514125824
-0.0420730002224445343 0.30617600679397583 0.201511994004249573
-0.0399559997022151947 0.299313008785247803 0.201502993702888489
-0.0373999997973442078 0.293790996074676514 0.201496005058288574
-0.0345080010592937469 0.28929099440574646 0.201490998268127441
-0.0313990004360675812 0.285443991422653198 0.20148700475692749
-0.0281099993735551834 0.282137006521224976 0.201483994722366333
-0.0246649999171495438 0.2792930006980896 0.201481997966766357
-0.0210769996047019958 0.276861995458602905 0.20148099958896637
-0.0173550006002187729 0.274810999631881714 0.20148099958896637
-0.0134910000488162041 0.273153007030487061 0.20148099958896637
-0.00949299987405538559 0.271863996982574463 0.201481997966766357
-0.00535999983549118042 0.270934998989105225 0.201483994722366333
-0.0010849999962374568 0.270379006862640381 0.201486006379127502
0.00334600009955465794 0.270222991704940796 0.201489999890327454
0.00795099977403879166 0.270514011383056641 0.201493993401527405
0.0127609996125102043 0.271317988634109497 0.201499000191688538
0.0178169999271631241 0.272738993167877197 0.201505005359649658
0.0231970008462667465 0.274964988231658936 0.201513007283210754
0.0291130002588033676 0.278535008430480957 0.201524004340171814
0.0359419994056224823 0.284397989511489868 0.201538994908332825
-0.043009001761674881 -0.000792999984696507454 0.201012000441551208
-0.0419050008058547974 -0.00772800017148256302 0.201002001762390137
-0.0402280017733573914 -0.0132050001993775368 0.200993999838829041
-0.0382120013236999512 -0.0178159996867179871 0.20098799467086792
-0.0359469987452030182 -0.0217940006405115128 0.200984001159667969
-0.033488001674413681 -0.0252790004014968872 0.200979992747306824
-0.0308710001409053802 -0.0283640008419752121 0.20097699761390686
-0.0281169991940259933 -0.0311110001057386398 0.200975000858306885
-0.0252410005778074265 -0.0335579998791217804 0.200973004102706909
-0.0222219992429018021 -0.0356599986553192139 0.200972005724906921
-0.0190900005400180817 -0.0374940000474452972 0.200971007347106934
-0.0158539991825819016 -0.039087001234292984 0.200971007347106934
-0.0125129995867609978 -0.0404409989714622498 0.200972005724906921
-0.00905399955809116364 -0.0415260009467601776 0.200973004102706909
-0.00545299984514713287 -0.0422989986836910248 0.200974002480506897
-0.00173100002575665712 -0.0428079999983310699 0.200975999236106873
0.00212500011548399925 -0.0430289991199970245 0.200978994369506836
0.00613600015640258789 -0.0429240018129348755 0.200983002781867981
0.0103289997205138206 -0.0424350015819072723 0.200986996293067932
0.0147470002993941307 -0.0414780005812644958 0.200992003083229065
0.0194540005177259445 -0.0399169996380805969 0.200997993350028992
0.0245580002665519714 -0.0375320017337799072 0.201005995273590088
0.0302489995956420898 -0.0339270010590553284 0.20101599395275116
0.0373330004513263702 -0.0273909997195005417 0.20103299617767334
-0.0415619984269142151 -0.298451006412506104 0.200528994202613831
-0.0430880002677440643 -0.308261007070541382 0.200512006878852844
-0.042973000556230545 -0.314758002758026123 0.200500994920730591
-0.0421870015561580658 -0.31988900899887085 0.200494006276130676
-0.0410370007157325745 -0.324272990226745605 0.200487002730369568
-0.0396180003881454468 -0.328103989362716675 0.200481995940208435
-0.0379940010607242584 -0.33151400089263916 0.200478002429008484
-0.0362179987132549286 -0.334612011909484863 0.200473994016647339
-0.034320000559091568 -0.337458014488220215 0.200470998883247375
-0.03230300173163414 -0.340063989162445068 0.2004690021276474
-0.0301409997045993805 -0.342384994029998779 0.200467005372047424
-0.0279009994119405746 -0.34454798698425293 0.200464993715286255
-0.0255759991705417633 -0.346543997526168823 0.200462996959686279
-0.023119000717997551 -0.348289012908935547 0.200462996959686279
-0.0205979999154806137 -0.349909991025924683 0.200461998581886292
-0.017984999343752861 -0.35135999321937561 0.200461998581886292
-0.0152550004422664642 -0.352596014738082886 0.200461998581886292
-0.0124580003321170807 -0.35371100902557373 0.200461998581886292
-0.00954900030046701431 -0.354624003171920776 0.200462996959686279
-0.00652199983596801758 -0.355331987142562866 0.200463995337486267
-0.00340900011360645294 -0.355890989303588867 0.200466006994247437
-0.000163000004249624908 -0.356220990419387817 0.200468003749847412
0.00324099999852478504 -0.35628199577331543 0.200470000505447388
0.00678500020876526833 -0.356110990047454834 0.200473994016647339
0.0104999998584389687 -0.355652987957000732 0.200477004051208496
0.0144370002672076225 -0.354828000068664551 0.200481995940208435
0.018678000196814537 -0.35349699854850769 0.200487002730369568
0.0233440008014440536 -0.351458996534347534 0.200494006276130676
0.0287129990756511688 -0.348248988389968872 0.200504004955291748
0.0356400012969970703 -0.342424988746643066 0.200518995523452759
0.228097006678581238 -0.149658992886543274 0.200984999537467957
0.228024005889892578 -0.156404003500938416 0.200974002480506897
0.228673994541168213 -0.161985993385314941 0.200965002179145813
0.229809001088142395 -0.166785001754760742 0.200957998633384705
0.231296002864837646 -0.171018004417419434 0.200953006744384766
0.233053997159004211 -0.174813002347946167 0.200947999954223633
0.235033005475997925 -0.178252995014190674 0.200944006443023682
0.237198993563652039 -0.18139299750328064 0.200940996408462524
0.239529997110366821 -0.184272006154060364 0.200938001275062561
0.242024004459381104 -0.186895996332168579 0.200935006141662598
0.244706004858016968 -0.189229995012283325 0.200933992862701416
0.247525006532669067 -0.191355004906654358 0.200932994484901428
0.250476986169815063 -0.193277999758720398 0.20093199610710144
0.25356900691986084 -0.1949940025806427 0.200930997729301453
0.256862998008728027 -0.196412995457649231 0.20093199610710144
0.260309010744094849 -0.197613000869750977 0.20093199610710144
0.263922005891799927 -0.1985740065574646 0.200933992862701416
0.267724007368087769 -0.199268996715545654 0.200936004519462585
0.271746993064880371 -0.199655994772911072 0.200938001275062561
0.276048988103866577 -0.199655994772911072 0.200941994786262512
0.280683010816574097 -0.19919799268245697 0.200946003198623657
0.285766005516052246 -0.198124006390571594 0.200951993465423584
-0.314126014709472656 0.156480997800827026 0.203811004757881165
-0.312481999397277832 0.146941006183624268 0.203784003853797913
-0.310180991888046265 0.140615001320838928 0.20376800000667572
-0.30758899450302124 0.135727003216743469 0.203757002949714661
-0.30482599139213562 0.131675004959106445 0.203749001026153564
-0.301937013864517212 0.128242999315261841 0.203741997480392456
-0.298947006464004517 0.125297993421554565 0.203738003969192505
-0.295872986316680908 0.122753001749515533 0.203734993934631348
-0.292723000049591064 0.120559997856616974 0.203732997179031372
-0.28948599100112915 0.118750996887683868 0.203731998801231384
-0.28618699312210083 0.117218002676963806 0.203731998801231384
-0.282826006412506104 0.115942999720573425 0.203732997179031372
-0.27940601110458374 0.114917002618312836 0.203734993934631348
-0.275909006595611572 0.114197999238967896 0.203738003969192505
-0.272338002920150757 0.113769002258777618 0.203741997480392456
-0.268700003623962402 0.113596998155117035 0.203747004270553589
-0.2649880051612854 0.113698996603488922 0.203752994537353516
-0.261193990707397461 0.114101000130176544 0.203759998083114624
-0.257292002439498901 0.114903002977371216 0.203768998384475708
-0.253277003765106201 0.116108998656272888 0.203777998685836792
-0.313717007637023926 -0.160533994436264038 0.202832996845245361
-0.312292993068695068 -0.167041003704071045 0.202814996242523193
-0.310487985610961914 -0.172012999653816223 0.202802002429962158
-0.308468014001846313 -0.1761150062084198 0.202793002128601074
-0.306295990943908691 -0.179600000381469727 0.202785000205039978
-0.304010987281799316 -0.182631999254226685 0.202778995037078857
-0.30164000391960144 -0.185322999954223633 0.202775001525878906
-0.299199998378753662 -0.187738001346588135 0.202770993113517761
-0.296692013740539551 -0.189890995621681213 0.202767997980117798
-0.29410099983215332 -0.191733002662658691 0.202766001224517822
-0.291464000940322876 -0.193404003977775574 0.202765002846717834
-0.288778007030487061 -0.194894999265670776 0.202764004468917847
-0.286013007164001465 -0.196109995245933533 0.202765002846717834
-0.283208996057510376 -0.197190001606941223 0.202766001224517822
-0.280351012945175171 -0.198085993528366089 0.20276699960231781
-0.277420014142990112 -0.198743999004364014 0.202769994735717773
-0.274446994066238403 -0.199268996715545654 0.202772006392478943
-0.271407008171081543 -0.199578002095222473 0.202775999903678894
-0.268292009830474854 -0.199655994772911072 0.202781006693840027
-0.265121012926101685 -0.199568003416061401 0.202785998582839966
-0.26186901330947876 -0.199237003922462463 0.202792003750801086
-0.258516997098922729 -0.198600992560386658 0.202799007296562195
-0.255075007677078247 -0.197707995772361755 0.202805995941162109
-0.251525014638900757 -0.19649900496006012 0.202815994620323181
-0.247835993766784668 -0.194885000586509705 0.202825993299484253
-0.24396100640296936 -0.192728996276855469 0.202839002013206482
-0.239819005131721497 -0.189787998795509338 0.202853992581367493
-0.235258996486663818 -0.185604006052017212 0.20287400484085083
-0.229812994599342346 -0.178761005401611328 0.202903002500534058
-0.0420520007610321045 0.306093990802764893 0.204683005809783936
-0.0399309992790222168 0.299246013164520264 0.204665005207061768
-0.037370000034570694 0.293742001056671143 0.204651996493339539
-0.0344760008156299591 0.289249002933502197 0.204641997814178467
-0.0313660018146038055 0.285409003496170044 0.204634994268417358
-0.0280760005116462708 0.282108008861541748 0.204630002379417419
-0.0246290005743503571 0.279269009828567505 0.204625993967056274
-0.0210410002619028091 0.276841998100280762 0.204623997211456299
-0.0173179991543292999 0.274794995784759521 0.204623997211456299
-0.0134560000151395798 0.273137986660003662 0.204623997211456299
-0.00945600029081106186 0.271852999925613403 0.204625993967056274
-0.00532299978658556938 0.270927995443344116 0.204630002379417419
-0.00104700005613267422 0.27037501335144043 0.204633995890617371
0.00338399992324411869 0.270224004983901978 0.204640999436378479
0.00798999983817338943 0.270518004894256592 0.204648002982139587
0.0128009999170899391 0.271326005458831787 0.204658001661300659
0.0178580004721879959 0.272751986980438232 0.204669997096061707
0.0232420004904270172 0.274989992380142212 0.204685002565383911
0.0291600003838539124 0.278569012880325317 0.204704999923706055
0.035999000072479248 0.284458011388778687 0.204733997583389282
-0.0430070012807846069 -0.000844000023789703846 0.20373399555683136
-0.0418960005044937134 -0.00776100018993020058 0.203713998198509216
-0.0402170009911060333 -0.0132330004125833511 0.203700006008148193
-0.0381999984383583069 -0.0178389996290206909 0.203687995672225952
-0.0359349995851516724 -0.0218129996210336685 0.203679993748664856
-0.0334759987890720367 -0.0252950005233287811 0.203673005104064941
-0.0308580007404088974 -0.028378000482916832 0.203666999936103821
-0.0281029995530843735 -0.0311220008879899979 0.20366300642490387
-0.0252279993146657944 -0.0335670001804828644 0.203658998012542725
-0.0222089998424053192 -0.0356689989566802979 0.203657001256942749
-0.0190769992768764496 -0.0375009998679161072 0.203657001256942749
-0.0158409997820854187 -0.0390920005738735199 0.203656002879142761
-0.0125010004267096519 -0.0404449999332427979 0.203657001256942749
-0.00904200039803981781 -0.0415299981832504272 0.203658998012542725
-0.00544199999421834946 -0.0423020012676715851 0.203661993145942688
-0.00171999994199723005 -0.0428089983761310577 0.203666001558303833
0.00213599996641278267 -0.0430289991199970245 0.203670993447303772
0.00614700000733137131 -0.0429220013320446014 0.20367799699306488
0.0103399995714426041 -0.042431998997926712 0.203685998916625977
0.0147580001503229141 -0.0414739996194839478 0.203694999217987061
0.0194649994373321533 -0.0399129986763000488 0.203706994652748108
0.0245680008083581924 -0.0375260002911090851 0.203722000122070312
0.0302590001374483109 -0.0339200012385845184 0.203741997480392456
0.0373449996113777161 -0.0273790005594491959 0.203773006796836853
-0.0415580011904239655 -0.298435002565383911 0.202816992998123169
-0.0430869981646537781 -0.308250010013580322 0.20278400182723999
-0.0429739989340305328 -0.314749002456665039 0.202764004468917847
-0.0421889983117580414 -0.319882005453109741 0.20274999737739563
-0.0410399995744228363 -0.324265003204345703 0.202738001942634583
-0.0396209992468357086 -0.328096002340316772 0.202728003263473511
-0.0379979982972145081 -0.331506013870239258 0.202720001339912415
-0.0362219996750354767 -0.334605008363723755 0.202712997794151306
-0.0343249998986721039 -0.337451010942459106 0.202706992626190186
-0.0323080010712146759 -0.34005698561668396 0.202702000737190247
-0.0301479995250701904 -0.342377990484237671 0.202698007225990295
-0.0279089994728565216 -0.344541996717453003 0.202694997191429138
-0.0255839992314577103 -0.346536993980407715 0.202692002058029175
-0.0231279991567134857 -0.348282009363174438 0.202691003680229187
-0.0206080004572868347 -0.349904000759124756 0.202689006924629211
-0.017994999885559082 -0.351354002952575684 0.202689006924629211
-0.0152669996023178101 -0.352591007947921753 0.202689006924629211
-0.0124709997326135635 -0.353706985712051392 0.202690005302429199
-0.00956199970096349716 -0.354620009660720825 0.202692002058029175
-0.00653700018301606178 -0.355329006910324097 0.20269399881362915
-0.00342500000260770321 -0.355888992547988892 0.202696993947029114
-0.000180000002728775144 -0.356218993663787842 0.202701002359390259
0.00322300009429454803 -0.35628199577331543 0.202705994248390198
0.00676500005647540092 -0.35611298680305481 0.202711999416351318
0.0104780001565814018 -0.355657011270523071 0.202719002962112427
0.0144119998440146446 -0.354835003614425659 0.202727004885673523
0.0186519995331764221 -0.353504985570907593 0.202737003564834595
0.0233120005577802658 -0.351476997137069702 0.202750995755195618
0.0286749992519617081 -0.34827500581741333 0.202768996357917786
0.0355789996683597565 -0.342489004135131836 0.202796995639801025
0.230042994022369385 -0.139865994453430176 0.203714996576309204
0.228100001811981201 -0.149584993720054626 0.203683003783226013
0.228019997477531433 -0.15634000301361084 0.203661993145942688
0.228664994239807129 -0.161928996443748474 0.203645005822181702
0.22979600727558136 -0.166734993457794189 0.203631997108459473
0.231279000639915466 -0.170972004532814026 0.203621000051498413
0.233033999800682068 -0.17477099597454071 0.203611999750137329
0.235009998083114624 -0.178214997053146362 0.203604996204376221
0.237173005938529968 -0.181358993053436279 0.203597992658615112
0.239500999450683594 -0.184240996837615967 0.203593000769615173
0.241993993520736694 -0.186864003539085388 0.203587993979454041
0.244673997163772583 -0.189200997352600098 0.203584998846054077
0.247489005327224731 -0.191330000758171082 0.203583002090454102
0.250438004732131958 -0.193257004022598267 0.203581005334854126
0.253529012203216553 -0.194973006844520569 0.203581005334854126
0.256819993257522583 -0.196394994854927063 0.203581005334854126
0.260262995958328247 -0.197597995400428772 0.203583002090454102
0.263871997594833374 -0.198563992977142334 0.203584998846054077
0.267670005559921265 -0.199264004826545715 0.203589007258415222
0.271688997745513916 -0.199655994772911072 0.203593999147415161
0.275988996028900146 -0.199655994772911072 0.203600004315376282
0.280618011951446533 -0.199203997850418091 0.203608006238937378
0.285686999559402466 -0.198148995637893677 0.203619003295898438
-0.312438994646072388 0.146772995591163635 0.206527993083000183
-0.310126990079879761 0.140504002571105957 0.206505000591278076
-0.307530999183654785 0.135635003447532654 0.206488996744155884
-0.304765999317169189 0.131596997380256653 0.206476002931594849
-0.3018760085105896 0.128178000450134277 0.206467002630233765
-0.298884004354476929 0.125244006514549255 0.206459999084472656
-0.295807987451553345 0.122708000242710114 0.206456005573272705
-0.292659014463424683 0.120516002178192139 0.206452995538711548
-0.289420992136001587 0.118713997304439545 0.20645199716091156
-0.286119997501373291 0.117190003395080566 0.20645199716091156
-0.282759010791778564 0.115921996533870697 0.206453993916511536
-0.279336988925933838 0.114903002977371216 0.206457003951072693
-0.275840997695922852 0.114183999598026276 0.206460997462272644
-0.272269010543823242 0.11376199871301651 0.206467002630233765
-0.268629997968673706 0.113596998155117035 0.206475004553794861
-0.264916986227035522 0.113706000149250031 0.206483006477355957
-0.261121988296508789 0.114115998148918152 0.206494003534317017
-0.312265992164611816 -0.167145997285842896 0.205100998282432556
-0.31045299768447876 -0.172084003686904907 0.2050819993019104
-0.308430999517440796 -0.176173999905586243 0.205068007111549377
-0.306259006261825562 -0.179658994078636169 0.205056995153427124
-0.303972005844116211 -0.182681992650032043 0.20504799485206604
-0.301600009202957153 -0.185365006327629089 0.205041006207466125
-0.299158990383148193 -0.187773004174232483 0.205035999417304993
-0.296651005744934082 -0.189925998449325562 0.205032005906105042
-0.294059991836547852 -0.191762000322341919 0.205028995871543884
-0.291422009468078613 -0.193427994847297668 0.205026999115943909
-0.28873598575592041 -0.194919005036354065 0.205026999115943909
-0.285970985889434814 -0.196127995848655701 0.205026999115943909
-0.283165991306304932 -0.197202995419502258 0.205028995871543884
-0.280308008193969727 -0.198100000619888306 0.20503099262714386
-0.277375996112823486 -0.198752999305725098 0.205034002661705017
-0.274403005838394165 -0.199273005127906799 0.205038994550704956
-0.271362990140914917 -0.199582993984222412 0.205044001340866089
-0.268247008323669434 -0.199655994772911072 0.205050006508827209
-0.265074998140335083 -0.199562996625900269 0.205057993531227112
-0.26182401180267334 -0.199231997132301331 0.205066993832588196
-0.258471012115478516 -0.198592007160186768 0.205077007412910461
-0.255028009414672852 -0.197693005204200745 0.205089002847671509
-0.251475989818572998 -0.196477994322776794 0.205101996660232544
-0.247785001993179321 -0.194857001304626465 0.205118000507354736
-0.243908002972602844 -0.192691996693611145 0.205136001110076904
-0.239763006567955017 -0.189739003777503967 0.205158993601799011
-0.2351980060338974 -0.185539007186889648 0.205188006162643433
-0.229728996753692627 -0.178626999258995056 0.205231994390487671
-0.043179001659154892 0.315809011459350586 0.207893997430801392
-0.0420310012996196747 0.306012004613876343 0.207852005958557129
-0.0399050004780292511 0.299178004264831543 0.207826003432273865
-0.0373389981687068939 0.293693006038665771 0.207807004451751709
-0.034442998468875885 0.289207011461257935 0.207792997360229492
-0.0313320010900497437 0.285373985767364502 0.207782000303268433
-0.0280419997870922089 0.282077997922897339 0.207774996757507324
-0.0245939996093511581 0.279244005680084229 0.207769006490707397
-0.0210050009191036224 0.276822000741958618 0.20776599645614624
-0.0172809995710849762 0.274780005216598511 0.207764998078346252
-0.0134199997410178185 0.273122012615203857 0.20776599645614624
-0.00942000001668930054 0.271842002868652344 0.207769006490707397
-0.00528600020334124565 0.270920008420944214 0.207773998379707336
-0.00100899999961256981 0.270370990037918091 0.207781001925468445
0.00342299998737871647 0.270224004983901978 0.207790002226829529
0.00803000014275312424 0.270521998405456543 0.207801997661590576
0.0128410002216696739 0.271333992481231689 0.207816004753112793
0.0178989991545677185 0.272765010595321655 0.207834005355834961
0.0232870001345872879 0.275014996528625488 0.20785599946975708
0.0292070005089044571 0.278600990772247314 0.207885995507240295
0.0360560007393360138 0.284518986940383911 0.207928001880645752
-0.042608998715877533 0.00981499999761581421 0.206504002213478088
-0.0430039986968040466 -0.000895000004675239325 0.206453993916511536
-0.0418870002031326294 -0.00779400020837783813 0.206424996256828308
-0.0402069985866546631 -0.0132609996944665909 0.206404000520706177
-0.0381890013813972473 -0.0178619995713233948 0.206387996673583984
-0.0359230004251003265 -0.0218320004642009735 0.206375002861022949
-0.0334630012512207031 -0.0253120008856058121 0.20636400580406189
-0.0308449994772672653 -0.0283920001238584518 0.206356003880500793
-0.0280900001525878906 -0.0311329998075962067 0.206349998712539673
-0.0252149999141693115 -0.0335769988596439362 0.206345006823539734
-0.0221970006823539734 -0.035677000880241394 0.206341996788978577
-0.0190639998763799667 -0.0375079996883869171 0.206340998411178589
-0.0158280003815889359 -0.0390969999134540558 0.206340998411178589
-0.0124890003353357315 -0.0404490008950233459 0.206341996788978577
-0.00903000030666589737 -0.0415339991450309753 0.206345006823539734
-0.00542999990284442902 -0.0423040017485618591 0.206349000334739685
-0.00170799996703863144 -0.042810000479221344 0.206355005502700806
0.00214800005778670311 -0.0430289991199970245 0.206363007426261902
0.00615799985826015472 -0.0429209992289543152 0.206371992826461792
0.0103510003536939621 -0.042429998517036438 0.206384003162384033
0.0147679997608065605 -0.0414710007607936859 0.206397995352745056
0.0194749999791383743 -0.0399079993367195129 0.206414997577667236
0.0245789997279644012 -0.0375210009515285492 0.206437006592750549
0.0302690006792545319 -0.0339130014181137085 0.206466004252433777
0.0373569987714290619 -0.0273659992963075638 0.206512004137039185
-0.0415540002286434174 -0.298418998718261719 0.20510399341583252
-0.0430869981646537781 -0.308241009712219238 0.205055996775627136
-0.0429739989340305328 -0.314738988876342773 0.205026999115943909
-0.0421909987926483154 -0.319873988628387451 0.20500500500202179
-0.0410429984331130981 -0.324257999658584595 0.204988002777099609
-0.0396240018308162689 -0.328087985515594482 0.204972997307777405
-0.0380010008811950684 -0.331499010324478149 0.204961001873016357
-0.0362269990146160126 -0.334596991539001465 0.204951003193855286
-0.0343299992382526398 -0.337444007396697998 0.204942002892494202
-0.0323139987885951996 -0.340048998594284058 0.204934999346733093
-0.0301539991050958633 -0.342370986938476562 0.204928994178771973
-0.0279159992933273315 -0.344534993171691895 0.204924002289772034
-0.0255919992923736572 -0.346531003713607788 0.204919993877410889
-0.0231369994580745697 -0.348275989294052124 0.204917997121810913
-0.0206179991364479065 -0.349898993968963623 0.204916000366210938
-0.0180060006678104401 -0.351348996162414551 0.20491500198841095
-0.0152780003845691681 -0.35258600115776062 0.204916000366210938
-0.012484000064432621 -0.35370299220085144 0.204916998744010925
-0.00957500003278255463 -0.354615986347198486 0.204918995499610901
-0.00655200006440281868 -0.355325996875762939 0.204923003911972046
-0.00344099989160895348 -0.355888009071350098 0.204926997423171997
-0.000195999993593432009 -0.356218010187149048 0.204933002591133118
0.00320499995723366737 -0.35628199577331543 0.204940006136894226
0.00674400012940168381 -0.356115013360977173 0.20494900643825531
0.010456000454723835 -0.355661988258361816 0.204959005117416382
0.0143870003521442413 -0.354842990636825562 0.204971000552177429
0.0186260007321834564 -0.353513002395629883 0.204987004399299622
0.023280000314116478 -0.351494014263153076 0.205006003379821777
0.228103995323181152 -0.149510994553565979 0.2063789963722229
0.22801700234413147 -0.156276002526283264 0.206348001956939697
0.228657007217407227 -0.161871999502182007 0.206323996186256409
0.229782998561859131 -0.166684001684188843 0.206304997205734253
0.231261998414993286 -0.170926004648208618 0.206288993358612061
0.233013004064559937 -0.174730002880096436 0.206275999546051025
0.234986007213592529 -0.178176999092102051 0.206264004111289978
0.237146005034446716 -0.181325003504753113 0.206255003809928894
0.239472001791000366 -0.184210002422332764 0.206247001886367798
0.241964995861053467 -0.186832994222640991 0.206239998340606689
0.244641005992889404 -0.189172998070716858 0.206236004829406738
0.247453004121780396 -0.191305994987487793 0.206231996417045593
0.250400006771087646 -0.193234995007514954 0.206229999661445618
0.25349000096321106 -0.194950997829437256 0.20622900128364563
0.25677800178527832 -0.196375995874404907 0.206229999661445618
0.260217010974884033 -0.197584003210067749 0.206231996417045593
0.263823002576828003 -0.198553994297981262 0.20623500645160675
0.267616003751754761 -0.199257999658584595 0.206240996718406677
0.271629989147186279 -0.199655994772911072 0.206248000264167786
0.27592998743057251 -0.199655994772911072 0.20625700056552887
0.28055301308631897 -0.199211001396179199 0.206269994378089905
0.285607993602752686 -0.198173999786376953 0.206285998225212097
0.291348010301589966 -0.196196004748344421 0.206306993961334229
0.298146992921829224 -0.19276900589466095 0.206338003277778625
-0.312395006418228149 0.146605998277664185 0.20927099883556366
-0.310072004795074463 0.140393003821372986 0.209240004420280457
-0.30747300386428833 0.135542005300521851 0.209218993782997131
-0.304706990718841553 0.131520003080368042 0.209203004837036133
-0.301813989877700806 0.128113001585006714 0.209190994501113892
-0.298821002244949341 0.125190004706382751 0.209181994199752808
-0.295744001865386963 0.122662998735904694 0.209176003932952881
-0.292593002319335938 0.120475001633167267 0.209171995520591736
-0.289355993270874023 0.118678003549575806 0.20916999876499176
-0.286053985357284546 0.117160998284816742 0.209170997142791748
-0.282691001892089844 0.115901000797748566 0.209172993898391724
-0.279269009828567505 0.114887997508049011 0.209177002310752869
-0.275772988796234131 0.114169999957084656 0.209182992577552795
-0.27219998836517334 0.113756000995635986 0.209190994501113892
-0.26855999231338501 0.113596998155117035 0.209200993180274963
-0.264845997095108032 0.113713003695011139 0.209212005138397217
-0.313675999641418457 -0.1608009934425354 0.207420006394386292
-0.312238991260528564 -0.167250007390975952 0.207385003566741943
-0.310418009757995605 -0.172154992818832397 0.207360997796058655
-0.308394014835357666 -0.176234006881713867 0.207342997193336487
-0.306223005056381226 -0.179718002676963806 0.207328006625175476
-0.303934007883071899 -0.182732000946998596 0.207316994667053223
-0.301560014486312866 -0.185405999422073364 0.207306995987892151
-0.299118012189865112 -0.187809005379676819 0.207300007343292236
-0.296611011028289795 -0.18996100127696991 0.207295000553131104
-0.294018000364303589 -0.191790997982025146 0.207291007041931152
-0.291379004716873169 -0.193451002240180969 0.207288995385169983
-0.288693994283676147 -0.194941997528076172 0.207287997007369995
-0.285928010940551758 -0.196145996451377869 0.207288995385169983
-0.283122003078460693 -0.197217002511024475 0.207289993762969971
-0.280265003442764282 -0.198112994432449341 0.207293003797531128
-0.277332991361618042 -0.198761999607086182 0.207297995686531067
-0.274358004331588745 -0.199277997016906738 0.207304000854492188
-0.271319001913070679 -0.199587002396583557 0.207311004400253296
-0.268202006816864014 -0.199655994772911072 0.20732000470161438
-0.265029013156890869 -0.19955800473690033 0.207329005002975464
-0.26177901029586792 -0.199228003621101379 0.207341000437736511
-0.258424997329711914 -0.198583006858825684 0.207354992628097534
-0.254979997873306274 -0.19767799973487854 0.207369998097419739
-0.251426994800567627 -0.196456998586654663 0.207387998700141907
-0.247733995318412781 -0.194829002022743225 0.20740799605846405
-0.243854999542236328 -0.192654997110366821 0.207433000206947327
-0.239706993103027344 -0.189691007137298584 0.207462996244430542
-0.235137000679969788 -0.185475006699562073 0.207501992583274841
-0.229645997285842896 -0.178492993116378784 0.20756000280380249
-0.043172001838684082 0.315679997205734253 0.211076006293296814
-0.0420089997351169586 0.305929005146026611 0.211019992828369141
-0.0398800000548362732 0.299109995365142822 0.210986003279685974
-0.0373089984059333801 0.2936440110206604 0.21096000075340271
-0.0344109982252120972 0.289166003465652466 0.210942000150680542
-0.0312989987432956696 0.285338997840881348 0.210927993059158325
-0.0280070006847381592 0.282049000263214111 0.210917994379997253
-0.0245590005069971085 0.279220014810562134 0.210911005735397339
-0.0209689997136592865 0.276802003383636475 0.210906997323036194
-0.0172450002282857895 0.274764001369476318 0.210905998945236206
-0.0133840003982186317 0.273106992244720459 0.210906997323036194
-0.00938300043344497681 0.271829992532730103 0.210911005735397339
-0.00524900015443563461 0.270911991596221924 0.210917994379997253
-0.000972000008914619684 0.27036699652671814 0.210926994681358337
0.00346100004389882088 0.270224004983901978 0.210939005017280579
0.00806900020688772202 0.270525991916656494 0.210953995585441589
0.0128800002858042717 0.271342009305953979 0.210972994565963745
0.0179399996995925903 0.272776991128921509 0.210997000336647034
0.0233319997787475586 0.275040000677108765 0.211025997996330261
0.0292550008744001389 0.278634011745452881 0.211064994335174561
0.0361130014061927795 0.284579008817672729 0.21112099289894104
-0.0430019982159137726 -0.000945999985560774803 0.209172993898391724
-0.0418789982795715332 -0.00782800000160932541 0.209134995937347412
-0.0401969999074935913 -0.0132879996672272682 0.209106996655464172
-0.0381780005991458893 -0.0178859997540712357 0.209086000919342041
-0.0359110012650489807 -0.0218519996851682663 0.209068998694419861
-0.0334509983658790588 -0.0253279991447925568 0.209055006504058838
-0.0308320000767707825 -0.0284049995243549347 0.209043994545936584
-0.0280770007520914078 -0.0311440005898475647 0.209035992622375488
-0.0252020005136728287 -0.0335859991610050201 0.209029003977775574
-0.0221839994192123413 -0.035686001181602478 0.209025993943214417
-0.0190520007163286209 -0.0375149995088577271 0.209023997187614441
-0.0158159993588924408 -0.0391019992530345917 0.209023997187614441
-0.012476000003516674 -0.040453001856803894 0.209024995565414429
-0.00901800021529197693 -0.0415380001068115234 0.209029003977775574
-0.00541799981147050858 -0.0423059985041618347 0.2090349942445755
-0.0016969999996945262 -0.042812000960111618 0.209042996168136597
0.00215899990871548653 -0.0430289991199970245 0.209052994847297668
0.00616900017485022545 -0.0429200008511543274 0.20906500518321991
0.0103620002046227455 -0.0424280017614364624 0.20907999575138092
0.0147789996117353439 -0.0414669997990131378 0.209098994731903076
0.0194850005209445953 -0.0399039983749389648 0.209122002124786377
0.0245890002697706223 -0.0375149995088577271 0.209151998162269592
0.0302789993584156036 -0.0339060015976428986 0.209189996123313904
0.0373690016567707062 -0.0273529998958110809 0.209250003099441528
-0.0415499992668628693 -0.298402994871139526 0.207389995455741882
-0.0430859997868537903 -0.308230996131896973 0.207326993346214294
-0.0429750010371208191 -0.314729988574981689 0.207287997007369995
-0.0421929992735385895 -0.319866001605987549 0.207258999347686768
-0.0410449989140033722 -0.324250996112823486 0.207236006855964661
-0.0396270006895065308 -0.32807999849319458 0.207216992974281311
-0.0380050018429756165 -0.331490993499755859 0.2072020024061203
-0.0362319983541965485 -0.334589987993240356 0.207187995314598083
-0.0343360006809234619 -0.337437987327575684 0.207176998257637024
-0.0323200002312660217 -0.340041995048522949 0.207166999578475952
-0.0301610007882118225 -0.342364013195037842 0.207158997654914856
-0.0279239993542432785 -0.344529002904891968 0.207153007388114929
-0.0255999993532896042 -0.34652400016784668 0.207148000597953796
-0.0231459997594356537 -0.348269999027252197 0.207144007086753845
-0.0206279996782541275 -0.349893003702163696 0.207141995429992676
-0.0180159993469715118 -0.351343005895614624 0.207140997052192688
-0.0152899995446205139 -0.352580994367599487 0.207141995429992676
-0.0124970003962516785 -0.353698998689651489 0.207142993807792664
-0.0095889996737241745 -0.354611992835998535 0.207146003842353821
-0.00656600017100572586 -0.355322986841201782 0.20715099573135376
-0.0034570000134408474 -0.355886012315750122 0.207156002521514893
-0.000213000006624497473 -0.356216013431549072 0.207164004445075989
0.003186000045388937 -0.35628199577331543 0.207173004746437073
0.00672399997711181641 -0.356117010116577148 0.20718500018119812
0.0104329995810985565 -0.355666995048522949 0.207197993993759155
0.0143619999289512634 -0.354851007461547852 0.207214996218681335
0.0186000000685453415 -0.353522002696990967 0.207234993577003479
0.0232469998300075531 -0.351512014865875244 0.207260996103286743
0.0285989996045827866 -0.348327994346618652 0.207295998930931091
0.228108003735542297 -0.149435997009277344 0.209075003862380981
0.228014007210731506 -0.156212002038955688 0.209033995866775513
0.228648006916046143 -0.161816000938415527 0.20900300145149231
0.229770004749298096 -0.16663399338722229 0.208976998925209045
0.231244996190071106 -0.170881003141403198 0.208956003189086914
