ply
format ascii 1.0
element vertex 734
property float x
property float y
property float z
end_header
-0.497231990098953247 -0.0755890011787414551 0.0268060006201267242
-0.497231990098953247 -0.0823400020599365234 0.025808999314904213
-0.497231990098953247 -0.0891420021653175354 0.024806000292301178
-0.497231990098953247 -0.0959929972887039185 0.0237949993461370468
-0.497231990098953247 -0.102894999086856842 0.0227770004421472549
-0.490707993507385254 -0.144486993551254272 0.015806000679731369
-0.447185009717941284 -0.437065988779067993 -0.0329240001738071442
-0.451112985610961914 -0.4370880126953125 -0.0324250012636184692
-0.454539000988006592 -0.438275992870330811 -0.0321630015969276428
-0.46959298849105835 -0.411610007286071777 -0.026304999366402626
-0.475140988826751709 -0.407501012086868286 -0.0249899998307228088
-0.479261994361877441 -0.406773000955581665 -0.0243560001254081726
-0.482814997434616089 -0.407391011714935303 -0.0239930003881454468
-0.485992997884750366 -0.40890800952911377 -0.0238109994679689407
-0.488700002431869507 -0.411576002836227417 -0.0238579995930194855
-0.490779995918273926 -0.415796995162963867 -0.0242149997502565384
0.455516993999481201 0.466637998819351196 -0.0121759995818138123
0.449744999408721924 0.465696990489959717 -0.0115820001810789108
0.446514993906021118 0.463578999042510986 -0.0114829996600747108
0.444328010082244873 0.460972994565963745 -0.0115870004519820213
0.44302600622177124 0.45794600248336792 -0.0118650002405047417
0.442541986703872681 0.454522997140884399 -0.012303999625146389
0.443305999040603638 0.450495988130569458 -0.0129899997264146805
0.448655992746353149 0.444251000881195068 -0.0145810004323720932
0.191860005259513855 0.472755014896392822 0.0221129991114139557
0.185634002089500427 0.472755014896392822 0.0229020006954669952
0.179444998502731323 0.472755014896392822 0.0236859992146492004
0.17328999936580658 0.472755014896392822 0.024465000256896019
0.167169004678726196 0.472755014896392822 0.0252400003373622894
0.161082997918128967 0.472755014896392822 0.0260109994560480118
0.155031993985176086 0.472755014896392822 0.0267779994755983353
0.149013996124267578 0.472755014896392822 0.0275400001555681229
0.14303000271320343 0.472755014896392822 0.0282979998737573624
0.137079000473022461 0.472755014896392822 0.029052000492811203
0.131161004304885864 0.472755014896392822 0.0298009999096393585
0.125275000929832458 0.472755014896392822 0.0305470004677772522
0.119422003626823425 0.472755014896392822 0.03128800168633461
0.113601997494697571 0.472755014896392822 0.0320249982178211212
0.107813000679016113 0.472755014896392822 0.0327580012381076813
0.102055996656417847 0.472755014896392822 0.033488001674413681
0.0963300019502639771 0.472755014896392822 0.0342129990458488464
0.0906350016593933105 0.472755014896392822 0.0349339991807937622
0.0849720016121864319 0.472755014896392822 0.0356509983539581299
0.0793389976024627686 0.472755014896392822 0.0363649986684322357
0.0737359970808029175 0.472755014896392822 0.0370739996433258057
0.0681639984250068665 0.472755014896392822 0.0377800017595291138
0.062620997428894043 0.472755014896392822 0.0384819991886615753
0.0571079999208450317 0.472755014896392822 0.0391799993813037872
0.0516249984502792358 0.472755014896392822 0.0398750007152557373
0.0461699999868869781 0.472755014896392822 0.0405660010874271393
0.0407450012862682343 0.472755014896392822 0.0412530004978179932
0.0353490002453327179 0.472755014896392822 0.041935998946428299
0.0299800001084804535 0.472755014896392822 0.0426159985363483429
0.0246409997344017029 0.472755014896392822 0.043292999267578125
0.0193290002644062042 0.472755014896392822 0.043965999037027359
0.0140450000762939453 0.472755014896392822 0.0446350015699863434
0.00878900010138750076 0.472755014896392822 0.0453010015189647675
0.00415500020608305931 0.472373992204666138 0.0458320006728172302
0.00193699996452778578 0.470452994108200073 0.0458320006728172302
-0.000281999993603676558 0.468531012535095215 0.0458320006728172302
-0.00249999994412064552 0.46661001443862915 0.0458320006728172302
-0.00471899984404444695 0.464688986539840698 0.0458320006728172302
-0.00693699996918439865 0.462767988443374634 0.0458320006728172302
-0.00915599986910820007 0.460846990346908569 0.0458320006728172302
-0.0113740004599094391 0.458925008773803711 0.0458320006728172302
-0.0135920001193881035 0.457004010677337646 0.0458320006728172302
-0.0158110000193119049 0.455083012580871582 0.0458320006728172302
-0.0180290006101131439 0.453162014484405518 0.0458320006728172302
-0.0202479995787143707 0.451240986585617065 0.0458320006728172302
-0.0224660001695156097 0.449319005012512207 0.0458320006728172302
-0.0246849991381168365 0.447398006916046143 0.0458320006728172302
-0.0269029997289180756 0.445477008819580078 0.0458320006728172302
-0.0291220005601644516 0.443556010723114014 0.0458320006728172302
-0.0313399992883205414 0.441633999347686768 0.0458320006728172302
-0.0335579998791217804 0.439713001251220703 0.0458320006728172302
-0.0357769988477230072 0.437792003154754639 0.0458320006728172302
-0.0379949994385242462 0.435871005058288574 0.0458320006728172302
-0.040213998407125473 0.43395000696182251 0.0458320006728172302
-0.042431998997926712 0.432029008865356445 0.0458320006728172302
-0.044649999588727951 0.430106997489929199 0.0458320006728172302
-0.0468689985573291779 0.428185999393463135 0.0458320006728172302
-0.0490869991481304169 0.42626500129699707 0.0458320006728172302
-0.0513060018420219421 0.424344003200531006 0.0458320006728172302
-0.0535239987075328827 0.422423005104064941 0.0458320006728172302
-0.055743001401424408 0.420500993728637695 0.0458320006728172302
-0.0579609982669353485 0.418579995632171631 0.0458320006728172302
-0.0601800009608268738 0.416658997535705566 0.0458320006728172302
-0.0623980015516281128 0.414737999439239502 0.0458320006728172302
-0.0646160021424293518 0.412815988063812256 0.0458320006728172302
-0.0668350011110305786 0.410894989967346191 0.0458320006728172302
-0.0690530017018318176 0.408973991870880127 0.0458320006728172302
-0.0712720006704330444 0.407052993774414062 0.0458320006728172302
-0.0734900012612342834 0.405131995677947998 0.0458320006728172302
-0.0757090002298355103 0.403210997581481934 0.0458320006728172302
-0.0779270008206367493 0.401288986206054688 0.0458320006728172302
-0.0801450014114379883 0.399367988109588623 0.0458320006728172302
-0.0823640003800392151 0.397446990013122559 0.0458320006728172302
-0.0845829993486404419 0.395525991916656494 0.0458320006728172302
-0.0868009999394416809 0.393604010343551636 0.0458320006728172302
-0.0890190005302429199 0.391683012247085571 0.0458320006728172302
-0.0912379994988441467 0.389762014150619507 0.0458320006728172302
-0.0934560000896453857 0.387840986251831055 0.0458320006728172302
-0.0956749990582466125 0.38591998815536499 0.0458320006728172302
-0.0978929996490478516 0.383998006582260132 0.0458320006728172302
-0.100111000239849091 0.382077008485794067 0.0458320006728172302
-0.102329999208450317 0.380156010389328003 0.0458320006728172302
-0.104547999799251556 0.378235012292861938 0.0458320006728172302
-0.106766998767852783 0.376314014196395874 0.0458320006728172302
-0.108984999358654022 0.374392002820968628 0.0458320006728172302
-0.111203998327255249 0.372471004724502563 0.0458320006728172302
-0.113421998918056488 0.370550006628036499 0.0458320006728172302
-0.115639999508857727 0.368629008531570435 0.0458320006728172302
-0.117858998477458954 0.36670801043510437 0.0458320006728172302
-0.120076999068260193 0.364785999059677124 0.0458320006728172302
-0.12229599803686142 0.36286500096321106 0.0458320006728172302
-0.124513998627662659 0.360944002866744995 0.0458320006728172302
-0.126733005046844482 0.359023004770278931 0.0458320006728172302
-0.128950998187065125 0.357100993394851685 0.0458320006728172302
-0.13116900622844696 0.35517999529838562 0.0458320006728172302
-0.13338799774646759 0.353258997201919556 0.0458320006728172302
-0.135606005787849426 0.351337999105453491 0.0458320006728172302
-0.137824997305870056 0.349417001008987427 0.0458320006728172302
-0.140043005347251892 0.347496002912521362 0.0458320006728172302
-0.142261996865272522 0.345573991537094116 0.0458320006728172302
-0.144480004906654358 0.343652993440628052 0.0458320006728172302
-0.146698996424674988 0.341731995344161987 0.0458320006728172302
-0.148917004466056824 0.339810997247695923 0.0458320006728172302
-0.151134997606277466 0.337888985872268677 0.0458320006728172302
-0.15335400402545929 0.335967987775802612 0.0458320006728172302
-0.155571997165679932 0.334046989679336548 0.0458320006728172302
-0.157791003584861755 0.332125991582870483 0.0458320006728172302
-0.160008996725082397 0.330204993486404419 0.0458320006728172302
-0.162228003144264221 0.328283995389938354 0.0458320006728172302
-0.164445996284484863 0.326362013816833496 0.0458320006728172302
-0.166665002703666687 0.324440985918045044 0.0458320006728172302
-0.168882995843887329 0.322519987821578979 0.0458320006728172302
-0.171101003885269165 0.320598989725112915 0.0458320006728172302
-0.173319995403289795 0.318677008152008057 0.0458320006728172302
-0.175538003444671631 0.316756010055541992 0.0458320006728172302
-0.177756994962692261 0.314835011959075928 0.0458320006728172302
-0.179975003004074097 0.312914013862609863 0.0458320006728172302
-0.182192996144294739 0.310992002487182617 0.0458320006728172302
-0.184412002563476562 0.309071004390716553 0.0458320006728172302
-0.186629995703697205 0.307150006294250488 0.0458320006728172302
-0.188849002122879028 0.305229008197784424 0.0458320006728172302
-0.19106699526309967 0.303308010101318359 0.0458320006728172302
-0.193286001682281494 0.301387012004852295 0.0458320006728172302
-0.195503994822502136 0.299465000629425049 0.0458320006728172302
-0.19772300124168396 0.297544002532958984 0.0458320006728172302
-0.199940994381904602 0.29562300443649292 0.0458320006728172302
-0.202160000801086426 0.293702006340026855 0.0458320006728172302
-0.204377993941307068 0.291781008243560791 0.0458320006728172302
-0.206596001982688904 0.289860010147094727 0.0458320006728172302
-0.208814993500709534 0.28793799877166748 0.0458320006728172302
-0.21103300154209137 0.286017000675201416 0.0458320006728172302
-0.213251993060112 0.284096002578735352 0.0458320006728172302
-0.215470001101493835 0.282173991203308105 0.0458320006728172302
-0.217687994241714478 0.280252993106842041 0.0458320006728172302
-0.219907000660896301 0.278331995010375977 0.0458320006728172302
-0.222124993801116943 0.276410996913909912 0.0458320006728172302
-0.224344000220298767 0.274489998817443848 0.0458320006728172302
-0.226561993360519409 0.272569000720977783 0.0458320006728172302
-0.228780999779701233 0.270646989345550537 0.0458320006728172302
-0.230998992919921875 0.268725991249084473 0.0458320006728172302
-0.233217000961303711 0.266804993152618408 0.0458320006728172302
-0.235436007380485535 0.264883995056152344 0.0458320006728172302
-0.237654000520706177 0.262962013483047485 0.0458320006728172302
-0.239873006939888 0.261040985584259033 0.0458320006728172302
-0.242091000080108643 0.259119987487792969 0.0458320006728172302
-0.244310006499290466 0.257198989391326904 0.0458320006728172302
-0.246527999639511108 0.25527799129486084 0.0458320006728172302
-0.248747006058692932 0.253356009721755981 0.0458320006728172302
-0.250964999198913574 0.251435011625289917 0.0458320006728172302
-0.25318300724029541 0.249513998627662659 0.0458320006728172302
-0.25540199875831604 0.247593000531196594 0.0458320006728172302
-0.257620006799697876 0.24567200243473053 0.0458320006728172302
-0.259838998317718506 0.243750005960464478 0.0458320006728172302
-0.262057006359100342 0.241828992962837219 0.0458320006728172302
-0.264275997877120972 0.239907994866371155 0.0458320006728172302
-0.266494005918502808 0.23798699676990509 0.0458320006728172302
-0.270247995853424072 0.237767994403839111 0.0462750010192394257
-0.274019986391067505 0.237584993243217468 0.0467259995639324188
-0.277613997459411621 0.237218007445335388 0.0471279993653297424
-0.281096011400222778 0.236738994717597961 0.0474990010261535645
-0.284415990114212036 0.236091002821922302 0.0478239990770816803
-0.287670999765396118 0.235379993915557861 0.0481330007314682007
-0.290751010179519653 0.234481006860733032 0.048390999436378479
-0.293792992830276489 0.233547002077102661 0.0486400015652179718
-0.296680986881256104 0.232445999979972839 0.0488450005650520325
-0.299535989761352539 0.231312006711959839 0.0490400008857250214
-0.302253991365432739 0.230028003454208374 0.0491969995200634003
-0.304940998554229736 0.228710994124412537 0.0493450015783309937
-0.307502001523971558 0.227255001664161682 0.0494560003280639648
-0.310034006834030151 0.225767001509666443 0.0495590008795261383
-0.312449008226394653 0.224144995212554932 0.0496280007064342499
-0.314832985401153564 0.222487002611160278 0.0496870018541812897
-0.317110985517501831 0.2207069993019104 0.0497159995138645172
-0.319346994161605835 0.218877002596855164 0.0497310012578964233
-0.321498006582260132 0.21694500744342804 0.0497209988534450531
-0.323588013648986816 0.214938998222351074 0.0496920011937618256
-0.325612008571624756 0.212852001190185547 0.0496429987251758575
-0.327556997537612915 0.210666999220848083 0.0495700016617774963
-0.329450011253356934 0.208416000008583069 0.0494810007512569427
-0.331248998641967773 0.206045001745223999 0.0493620000779628754
-0.333003014326095581 0.203614994883537292 0.0492289997637271881
-0.334650993347167969 0.201048001646995544 0.049061998724937439
-0.336255013942718506 0.198419004678726196 0.0488810017704963684
-0.337743997573852539 0.195640996098518372 0.0486630015075206757
-0.33917701244354248 0.19278399646282196 0.0484270006418228149
-0.340498000383377075 0.189775004982948303 0.0481540001928806305
-0.341733008623123169 0.186647996306419373 0.0478530004620552063
-0.342869997024536133 0.183383002877235413 0.047518998384475708
-0.343863993883132935 0.179924994707107544 0.0471390001475811005
-0.344790011644363403 0.176363006234169006 0.0467359982430934906
-0.345490008592605591 0.172492995858192444 0.0462590008974075317
-0.346358001232147217 0.168823003768920898 0.0458320006728172302
-0.348576009273529053 0.166902005672454834 0.0458320006728172302
-0.350793987512588501 0.164980992674827576 0.0458320006728172302
-0.353013008832931519 0.163059994578361511 0.0458320006728172302
-0.355230987071990967 0.161137998104095459 0.0458320006728172302
-0.357450008392333984 0.159217000007629395 0.0458320006728172302
-0.359667986631393433 0.15729600191116333 0.0458320006728172302
-0.36188700795173645 0.155375003814697266 0.0458320006728172302
-0.364104986190795898 0.153454005718231201 0.0458320006728172302
-0.366324007511138916 0.151532992720603943 0.0458320006728172302
-0.368541985750198364 0.149610996246337891 0.0458320006728172302
-0.3707599937915802 0.147689998149871826 0.0458320006728172302
-0.37297898530960083 0.145769000053405762 0.0458320006728172302
-0.375196993350982666 0.143848001956939697 0.0458320006728172302
-0.377416014671325684 0.141926005482673645 0.0458320006728172302
-0.379633992910385132 0.140005007386207581 0.0458320006728172302
-0.381853014230728149 0.138083994388580322 0.0458320006728172302
-0.384070992469787598 0.136162996292114258 0.0458320006728172302
-0.386290013790130615 0.134241998195648193 0.0458320006728172302
-0.388507992029190063 0.132320001721382141 0.0458320006728172302
-0.390726000070571899 0.130399003624916077 0.0458320006728172302
-0.392944991588592529 0.128478005528450012 0.0458320006728172302
-0.395162999629974365 0.126557007431983948 0.0458320006728172302
-0.397381991147994995 0.124636001884937286 0.0458320006728172302
-0.399599999189376831 0.122713997960090637 0.0458320006728172302
-0.401818990707397461 0.120792999863624573 0.0458320006728172302
-0.404036998748779297 0.118872001767158508 0.0458320006728172302
-0.406255006790161133 0.116951003670692444 0.0458320006728172302
-0.408473998308181763 0.115029998123645782 0.0458320006728172302
-0.410692006349563599 0.11310800164937973 0.0458320006728172302
-0.412910997867584229 0.111187003552913666 0.0458320006728172302
-0.415129005908966064 0.109265998005867004 0.0458320006728172302
-0.4173470139503479 0.10734499990940094 0.0458320006728172302
-0.41956600546836853 0.105424001812934875 0.0458320006728172302
-0.421784013509750366 0.103501997888088226 0.0458320006728172302
-0.424003005027770996 0.101580999791622162 0.0458320006728172302
-0.426221013069152832 0.0996600016951560974 0.0458320006728172302
-0.428440004587173462 0.097739003598690033 0.0458320006728172302
-0.430658012628555298 0.0958179980516433716 0.0458320006728172302
-0.432875990867614746 0.0938960015773773193 0.0458320006728172302
-0.435095012187957764 0.0919750034809112549 0.0458320006728172302
-0.437312990427017212 0.0900539979338645935 0.0458320006728172302
-0.439532011747360229 0.0881329998373985291 0.0458320006728172302
-0.441749989986419678 0.0862110033631324768 0.0458320006728172302
-0.443969011306762695 0.0842899978160858154 0.0458320006728172302
-0.446186989545822144 0.082368999719619751 0.0458320006728172302
-0.448406010866165161 0.0804480016231536865 0.0458320006728172302
-0.450623989105224609 0.0785270035266876221 0.0458320006728172302
-0.452841997146606445 0.0766049996018409729 0.0458320006728172302
-0.455060988664627075 0.0746840015053749084 0.0458320006728172302
-0.457278996706008911 0.072763003408908844 0.0458320006728172302
-0.459497988224029541 0.0708419978618621826 0.0458320006728172302
-0.461715996265411377 0.0689200013875961304 0.0458320006728172302
-0.463934987783432007 0.0669990032911300659 0.0458320006728172302
-0.466152995824813843 0.0650779977440834045 0.0458320006728172302
-0.468371987342834473 0.0631569996476173401 0.0458320006728172302
-0.470589995384216309 0.0612360015511512756 0.0458320006728172302
-0.472808003425598145 0.0593149997293949127 0.0458320006728172302
-0.475026994943618774 0.057392999529838562 0.0458320006728172302
-0.47724500298500061 0.0554720014333724976 0.0458320006728172302
-0.47946399450302124 0.0535509996116161346 0.0458320006728172302
-0.481682002544403076 0.0516300015151500702 0.0458320006728172302
-0.483900994062423706 0.0497089996933937073 0.0458320006728172302
-0.486119002103805542 0.0477869994938373566 0.0458320006728172302
-0.488337010145187378 0.0458660013973712921 0.0458320006728172302
-0.490556001663208008 0.0439449995756149292 0.0458320006728172302
-0.492774009704589844 0.0420240014791488647 0.0458320006728172302
-0.494993001222610474 0.040102001279592514 0.0458320006728172302
-0.49721100926399231 0.0381809994578361511 0.0458320006728172302
-0.497231990098953247 0.0322760008275508881 0.0449710004031658173
-0.497231990098953247 0.0262919999659061432 0.0440949983894824982
-0.497231990098953247 0.0202680006623268127 0.0432140007615089417
-0.497231990098953247 0.0142010003328323364 0.042327001690864563
-0.497231990098953247 0.0080930003896355629 0.0414340011775493622
-0.497231990098953247 0.00194200000260025263 0.0405340008437633514
-0.497231990098953247 -0.00425199978053569794 0.0396279990673065186
-0.497231990098953247 -0.0104900002479553223 0.038715999573469162
-0.497231990098953247 -0.0167720001190900803 0.0377970002591609955
-0.497231990098953247 -0.0230979993939399719 0.0368719995021820068
-0.497231990098953247 -0.0294690001755952835 0.0359399989247322083
-0.497231990098953247 -0.0358849987387657166 0.035002000629901886
-0.497231990098953247 -0.0423480011522769928 0.0340569987893104553
-0.497231990098953247 -0.0488560013473033905 0.0331050008535385132
-0.497231006622314453 -0.0554119981825351715 0.0321459993720054626
-0.497231990098953247 -0.0620150007307529449 0.0311799999326467514
-0.497231990098953247 -0.0686649978160858154 0.0302080009132623672
-0.497231990098953247 -0.0753649994730949402 0.0292279999703168869
-0.497231990098953247 -0.0821129977703094482 0.0282409992069005966
-0.497231990098953247 -0.0889109969139099121 0.0272470004856586456
-0.497231990098953247 -0.095757998526096344 0.0262449998408555984
-0.497231990098953247 -0.102655999362468719 0.0252359993755817413
-0.497231990098953247 -0.116607002913951874 0.0231960006058216095
-0.497231990098953247 -0.123660996556282043 0.0221640001982450485
-0.490658998489379883 -0.144329994916915894 0.0183090008795261383
-0.490301012992858887 -0.152305006980895996 0.0170970000326633453
-0.447008013725280762 -0.437083989381790161 -0.0300360005348920822
-0.450949996709823608 -0.437072008848190308 -0.029534999281167984
-0.454400002956390381 -0.438201993703842163 -0.0292629990726709366
-0.46925199031829834 -0.412023007869720459 -0.0235530007630586624
-0.474949002265930176 -0.407559007406234741 -0.0221790000796318054
-0.479093998670578003 -0.406769990921020508 -0.0215380005538463593
-0.482663989067077637 -0.407344996929168701 -0.0211699996143579483
-0.485864996910095215 -0.408803999423980713 -0.0209780000150203705
-0.488586008548736572 -0.41143500804901123 -0.0210190005600452423
-0.490709006786346436 -0.415546000003814697 -0.0213510002940893173
0.45492398738861084 0.466697007417678833 -0.00933900009840726852
0.44953000545501709 0.465582013130187988 -0.00882400013506412506
0.446348011493682861 0.463441997766494751 -0.00873399991542100906
0.444236993789672852 0.460801988840103149 -0.00885200034826993942
0.442970007658004761 0.457758992910385132 -0.00913400016725063324
0.442562997341156006 0.454300999641418457 -0.00958400033414363861
0.443383008241653442 0.45024600625038147 -0.010274999774992466
0.474873006343841553 0.431459009647369385 -0.0169520005583763123
0.210434004664421082 0.472755014896392822 0.0222319997847080231
0.204104006290435791 0.472755014896392822 0.0230269990861415863
0.19781099259853363 0.472755014896392822 0.0238170009106397629
0.191553995013237 0.472755014896392822 0.0246019996702671051
0.185332000255584717 0.472755014896392822 0.0253829993307590485
0.17914600670337677 0.472755014896392822 0.026159999892115593
0.17299400269985199 0.472755014896392822 0.0269319992512464523
0.166877001523971558 0.472755014896392822 0.0276999995112419128
0.160795003175735474 0.472755014896392822 0.0284640006721019745
0.154746994376182556 0.472755014896392822 0.029223000630736351
0.148732006549835205 0.472755014896392822 0.0299779996275901794
0.142750993371009827 0.472755014896392822 0.030728999525308609
0.136803001165390015 0.472755014896392822 0.0314750000834465027
0.130888998508453369 0.472755014896392822 0.0322180017828941345
0.125007003545761108 0.472755014896392822 0.032956000417470932
0.119157001376152039 0.472755014896392822 0.0336910001933574677
0.113338999450206757 0.472755014896392822 0.0344210006296634674
0.107554003596305847 0.472755014896392822 0.0351470001041889191
0.101800002157688141 0.472755014896392822 0.0358700007200241089
0.0960770025849342346 0.472755014896392822 0.0365879982709884644
0.0903860032558441162 0.472755014896392822 0.0373030006885528564
0.0847249999642372131 0.472755014896392822 0.0380130000412464142
0.0790949985384941101 0.472755014896392822 0.0387200005352497101
0.0734950006008148193 0.472755014896392822 0.0394230000674724579
0.0679259970784187317 0.472755014896392822 0.0401219986379146576
0.0623859986662864685 0.472755014896392822 0.0408179983496665955
0.0568760000169277191 0.472755014896392822 0.0415089987218379974
0.0513960011303424835 0.472755014896392822 0.0421970002353191376
0.0459440015256404877 0.472755014896392822 0.0428819991648197174
0.0405220016837120056 0.472755014896392822 0.0435619987547397614
0.0351280011236667633 0.472755014896392822 0.0442400015890598297
0.0297619998455047607 0.472755014896392822 0.0449130013585090637
0.0244249999523162842 0.472755014896392822 0.0455829985439777374
0.0210410002619028091 0.47153899073600769 0.0458320006728172302
0.0188040006905794144 0.46960100531578064 0.0458320006728172302
0.0165660008788108826 0.467662990093231201 0.0458320006728172302
0.0143290003761649132 0.46572500467300415 0.0458320006728172302
0.0120909996330738068 0.463788002729415894 0.0458320006728172302
0.00985400006175041199 0.461849987506866455 0.0458320006728172302
0.00761599978432059288 0.459912002086639404 0.0458320006728172302
0.0053790002129971981 0.457973986864089966 0.0458320006728172302
0.003140999935567379 0.456036001443862915 0.0458320006728172302
0.000904000014998018742 0.454098999500274658 0.0458320006728172302
-0.00133400002960115671 0.452161014080047607 0.0458320006728172302
-0.00357199995778501034 0.450222998857498169 0.0458320006728172302
-0.00580900022760033607 0.448285013437271118 0.0458320006728172302
-0.00804699957370758057 0.446348011493682861 0.0458320006728172302
-0.01028400007635355 0.444409996271133423 0.0458320006728172302
-0.0125219998881220818 0.442472010850906372 0.0458320006728172302
-0.0147590003907680511 0.440533995628356934 0.0458320006728172302
-0.0169970002025365829 0.438596993684768677 0.0458320006728172302
-0.0192350000143051147 0.436659008264541626 0.0458320006728172302
-0.0214719995856285095 0.434720993041992188 0.0458320006728172302
-0.0237089991569519043 0.432783007621765137 0.0458320006728172302
-0.0259470008313655853 0.430844992399215698 0.0458320006728172302
-0.0281850006431341171 0.428907990455627441 0.0458320006728172302
-0.0304220002144575119 0.426970005035400391 0.0458320006728172302
-0.0326600000262260437 0.425031989812850952 0.0458320006728172302
-0.0348969995975494385 0.423094987869262695 0.0458320006728172302
-0.0371350012719631195 0.421157002449035645 0.0458320006728172302
-0.0393720008432865143 0.419218987226486206 0.0458320006728172302
-0.0416099987924098969 0.417281001806259155 0.0458320006728172302
-0.0438480004668235779 0.415342986583709717 0.0458320006728172302
-0.0460850000381469727 0.413406014442443848 0.0458320006728172302
-0.0483230017125606537 0.411467999219894409 0.0458320006728172302
-0.0505600012838840485 0.409530013799667358 0.0458320006728172302
-0.052797999233007431 0.407593011856079102 0.0458320006728172302
-0.0550349988043308258 0.405654996633529663 0.0458320006728172302
-0.0572730004787445068 0.403717011213302612 0.0458320006728172302
-0.0595100000500679016 0.401778995990753174 0.0458320006728172302
-0.0617480017244815826 0.399841010570526123 0.0458320006728172302
-0.063984997570514679 0.397904008626937866 0.0458320006728172302
-0.0662230029702186584 0.395965993404388428 0.0458320006728172302
-0.068461000919342041 0.394028007984161377 0.0458320006728172302
-0.0706980004906654358 0.392089992761611938 0.0458320006728172302
-0.0729359984397888184 0.390152990818023682 0.0458320006728172302
-0.0751729980111122131 0.388215005397796631 0.0458320006728172302
-0.0774110034108161926 0.386276990175247192 0.0458320006728172302
-0.0796480029821395874 0.384339004755020142 0.0458320006728172302
-0.08188600093126297 0.382400989532470703 0.0458320006728172302
-0.0841230005025863647 0.380463987588882446 0.0458320006728172302
-0.0863609984517097473 0.378526002168655396 0.0458320006728172302
-0.0885979980230331421 0.376587986946105957 0.0458320006728172302
-0.0908360034227371216 0.374651014804840088 0.0458320006728172302
-0.0930740013718605042 0.372712999582290649 0.0458320006728172302
-0.0953110009431838989 0.370775014162063599 0.0458320006728172302
-0.0975489988923072815 0.36883699893951416 0.0458320006728172302
-0.0997859984636306763 0.366899013519287109 0.0458320006728172302
-0.102023996412754059 0.364962011575698853 0.0458320006728172302
-0.104261003434658051 0.363023996353149414 0.0458320006728172302
-0.106499001383781433 0.361086010932922363 0.0458320006728172302
-0.108736999332904816 0.359147995710372925 0.0458320006728172302
-0.11097399890422821 0.357210993766784668 0.0458320006728172302
-0.113211996853351593 0.355273008346557617 0.0458320006728172302
-0.115448996424674988 0.353334993124008179 0.0458320006728172302
-0.117687001824378967 0.351397007703781128 0.0458320006728172302
-0.119924001395702362 0.349460005760192871 0.0458320006728172302
-0.122161999344825745 0.347521990537643433 0.0458320006728172302
-0.124398998916149139 0.345584005117416382 0.0458320006728172302
-0.126636996865272522 0.343645989894866943 0.0458320006728172302
-0.128874003887176514 0.341708987951278687 0.0458320006728172302
-0.131111994385719299 0.339771002531051636 0.0458320006728172302
-0.133349999785423279 0.337832987308502197 0.0458320006728172302
-0.135587006807327271 0.335895001888275146 0.0458320006728172302
-0.137824997305870056 0.333956986665725708 0.0458320006728172302
-0.140062004327774048 0.332020014524459839 0.0458320006728172302
-0.142299994826316833 0.3300819993019104 0.0458320006728172302
-0.144537001848220825 0.32814401388168335 0.0458320006728172302
-0.146775007247924805 0.326207011938095093 0.0458320006728172302
-0.14901299774646759 0.324268996715545654 0.0458320006728172302
-0.151250004768371582 0.322331011295318604 0.0458320006728172302
-0.15348699688911438 0.320392996072769165 0.0458320006728172302
-0.155725002288818359 0.318455010652542114 0.0458320006728172302
-0.157962992787361145 0.316518008708953857 0.0458320006728172302
-0.160199999809265137 0.314579993486404419 0.0458320006728172302
-0.162438005208969116 0.312642008066177368 0.0458320006728172302
-0.164675995707511902 0.310705006122589111 0.0458320006728172302
-0.166913002729415894 0.308766990900039673 0.0458320006728172302
-0.169149994850158691 0.306829005479812622 0.0458320006728172302
-0.171388000249862671 0.304890990257263184 0.0458320006728172302
-0.173625007271766663 0.302953004837036133 0.0458320006728172302
-0.175862997770309448 0.301016002893447876 0.0458320006728172302
-0.178101003170013428 0.299077987670898438 0.0458320006728172302
-0.180337995290756226 0.297140002250671387 0.0458320006728172302
-0.182576000690460205 0.295201987028121948 0.0458320006728172302
-0.184812992811203003 0.293265014886856079 0.0458320006728172302
-0.187050998210906982 0.291326999664306641 0.0458320006728172302
-0.189289003610610962 0.28938901424407959 0.0458320006728172302
-0.19152599573135376 0.287450999021530151 0.0458320006728172302
-0.193763002753257751 0.285513013601303101 0.0458320006728172302
-0.196000993251800537 0.283576011657714844 0.0458320006728172302
-0.198238998651504517 0.281637996435165405 0.0458320006728172302
-0.200476005673408508 0.279700011014938354 0.0458320006728172302
-0.202713996171951294 0.277763009071350098 0.0458320006728172302
-0.204951003193855286 0.275824993848800659 0.0458320006728172302
-0.207188993692398071 0.273887008428573608 0.0458320006728172302
-0.209426000714302063 0.27194899320602417 0.0458320006728172302
-0.211664006114006042 0.270011007785797119 0.0458320006728172302
-0.213901996612548828 0.268074005842208862 0.0458320006728172302
-0.21613900363445282 0.266135990619659424 0.0458320006728172302
-0.218375995755195618 0.264198005199432373 0.0458320006728172302
-0.220614001154899597 0.262261003255844116 0.0458320006728172302
-0.222852006554603577 0.260322988033294678 0.0458320006728172302
-0.225088998675346375 0.258385002613067627 0.0458320006728172302
-0.227327004075050354 0.256446987390518188 0.0458320006728172302
-0.229563996195793152 0.254509001970291138 0.0458320006728172302
-0.231802001595497131 0.252570986747741699 0.0458320006728172302
-0.234038993716239929 0.25063401460647583 0.0458320006728172302
-0.236276999115943909 0.248695999383926392 0.0458320006728172302
-0.2385140061378479 0.246757999062538147 0.0458320006728172302
-0.240751996636390686 0.244819998741149902 0.0458320006728172302
-0.242990002036094666 0.242882996797561646 0.0458320006728172302
-0.245226994156837463 0.240944996476173401 0.0458320006728172302
-0.247464999556541443 0.239006996154785156 0.0458320006728172302
-0.249702006578445435 0.237068995833396912 0.0458320006728172302
-0.252950996160507202 0.236232995986938477 0.0461179986596107483
-0.25769999623298645 0.23704800009727478 0.0468330010771751404
-0.262160986661911011 0.237570002675056458 0.0474679991602897644
-0.266281008720397949 0.237738996744155884 0.0480099990963935852
-0.270258009433746338 0.237767994403839111 0.0485129989683628082
-0.274031996726989746 0.237588003277778625 0.0489609986543655396
-0.277626991271972656 0.237223997712135315 0.0493599995970726013
-0.281107991933822632 0.236744999885559082 0.0497270002961158752
-0.284426987171173096 0.236096993088722229 0.0500500015914440155
-0.287670999765396118 0.23537600040435791 0.0503530018031597137
-0.290758997201919556 0.234485998749732971 0.0506110005080699921
-0.293788999319076538 0.233539000153541565 0.0508540011942386627
-0.296687990427017212 0.23245200514793396 0.0510610006749629974
-0.299529999494552612 0.23130500316619873 0.0512510016560554504
-0.302258998155593872 0.230035006999969482 0.0514100007712841034
-0.304933011531829834 0.228706002235412598 0.0515529997646808624
-0.307505995035171509 0.227263003587722778 0.0516670010983943939
-0.310025990009307861 0.22576199471950531 0.051764998584985733
-0.312451988458633423 0.224153995513916016 0.0518370009958744049
-0.314826995134353638 0.222488000988960266 0.0518940016627311707
-0.317113012075424194 0.22071799635887146 0.0519240014255046844
-0.319348007440567017 0.218887999653816223 0.0519389994442462921
-0.321498006582260132 0.216957002878189087 0.0519290007650852203
-0.323588013648986816 0.214953005313873291 0.0519010014832019806
-0.325610995292663574 0.21286599338054657 0.0518530011177062988
-0.327556014060974121 0.210682004690170288 0.0517800003290176392
-0.329445987939834595 0.208427995443344116 0.0516909994184970856
-0.331247001886367798 0.206062003970146179 0.0515739992260932922
-0.332996994256973267 0.203628003597259521 0.051440998911857605
-0.334648996591567993 0.201067999005317688 0.0512770004570484161
-0.336250990629196167 0.198438003659248352 0.0510969981551170349
-0.337742000818252563 0.195664003491401672 0.0508820004761219025
-0.339175999164581299 0.192809000611305237 0.0506480000913143158
-0.3404960036277771 0.189800992608070374 0.0503779985010623932
-0.341731995344161987 0.186675995588302612 0.0500800013542175293
-0.342868000268936157 0.183412998914718628 0.0497490018606185913
-0.343863993883132935 0.179957002401351929 0.0493739992380142212
-0.344778001308441162 0.176381006836891174 0.0489699989557266235
-0.345492005348205566 0.172530993819236755 0.0485009998083114624
-0.346067994832992554 0.168484002351760864 0.0479869991540908813
-0.346484005451202393 0.164206996560096741 0.0474190004169940948
-0.346612006425857544 0.15953199565410614 0.0467579998075962067
-0.346404999494552612 0.154390007257461548 0.0459860004484653473
-0.348154991865158081 0.151807993650436401 0.0458320006728172302
-0.350392013788223267 0.149869993329048157 0.0458320006728172302
-0.352629989385604858 0.147933006286621094 0.0458320006728172302
-0.354867011308670044 0.145995005965232849 0.0458320006728172302
-0.357104986906051636 0.144057005643844604 0.0458320006728172302
-0.359342008829116821 0.14211900532245636 0.0458320006728172302
-0.361580014228820801 0.140181005001068115 0.0458320006728172302
-0.363817006349563599 0.138244003057479858 0.0458320006728172302
-0.366055011749267578 0.136306002736091614 0.0458320006728172302
-0.36829298734664917 0.134368002414703369 0.0458320006728172302
-0.370530009269714355 0.132430002093315125 0.0458320006728172302
-0.372768014669418335 0.130493000149726868 0.0458320006728172302
-0.375005006790161133 0.128554999828338623 0.0458320006728172302
-0.377243012189865112 0.126616999506950378 0.0458320006728172302
-0.37948000431060791 0.124678999185562134 0.0458320006728172302
-0.38171800971031189 0.122741997241973877 0.0458320006728172302
-0.383955001831054688 0.120803996920585632 0.0458320006728172302
-0.386193007230758667 0.118865996599197388 0.0458320006728172302
-0.388429999351501465 0.116927996277809143 0.0458320006728172302
-0.390668004751205444 0.114990003407001495 0.0458320006728172302
-0.392906010150909424 0.113053001463413239 0.0458320006728172302
-0.395143002271652222 0.111115001142024994 0.0458320006728172302
-0.397381007671356201 0.109177000820636749 0.0458320006728172302
-0.399617999792098999 0.107239000499248505 0.0458320006728172302
-0.401856005191802979 0.105301998555660248 0.0458320006728172302
-0.404092997312545776 0.103363998234272003 0.0458320006728172302
-0.406331002712249756 0.101425997912883759 0.0458320006728172302
-0.408567994832992554 0.0994879975914955139 0.0458320006728172302
-0.410806000232696533 0.097551003098487854 0.0458320006728172302
-0.413044005632400513 0.0956130027770996094 0.0458320006728172302
-0.415280997753143311 0.0936750024557113647 0.0458320006728172302
-0.41751900315284729 0.0917370021343231201 0.0458320006728172302
-0.419755995273590088 0.0898000001907348633 0.0458320006728172302
-0.421994000673294067 0.0878619998693466187 0.0458320006728172302
-0.424230992794036865 0.085923999547958374 0.0458320006728172302
-0.426468998193740845 0.0839859992265701294 0.0458320006728172302
-0.428705990314483643 0.0820479989051818848 0.0458320006728172302
-0.430943995714187622 0.0801109969615936279 0.0458320006728172302
-0.433182001113891602 0.0781729966402053833 0.0458320006728172302
-0.435418993234634399 0.0762349963188171387 0.0458320006728172302
-0.437656998634338379 0.074297003448009491 0.0458320006728172302
-0.439893990755081177 0.0723600015044212341 0.0458320006728172302
-0.442131996154785156 0.0704220011830329895 0.0458320006728172302
-0.444368988275527954 0.0684840008616447449 0.0458320006728172302
-0.446606993675231934 0.0665460005402565002 0.0458320006728172302
-0.448843985795974731 0.0646089985966682434 0.0458320006728172302
-0.451081991195678711 0.0626709982752799988 0.0458320006728172302
-0.453319013118743896 0.0607330016791820526 0.0458320006728172302
-0.455556988716125488 0.058795001357793808 0.0458320006728172302
-0.457794994115829468 0.0568579994142055511 0.0458320006728172302
-0.460031986236572266 0.0549199990928173065 0.0458320006728172302
-0.462269991636276245 0.0529819987714290619 0.0458320006728172302
-0.464507013559341431 0.0510439984500408173 0.0458320006728172302
-0.466744989156723022 0.0491070002317428589 0.0458320006728172302
-0.468982011079788208 0.0471689999103546143 0.0458320006728172302
-0.4712199866771698 0.0452309995889663696 0.0458320006728172302
-0.473457008600234985 0.043292999267578125 0.0458320006728172302
-0.475695013999938965 0.0413549989461898804 0.0458320006728172302
-0.477932006120681763 0.039418000727891922 0.0458320006728172302
-0.480170011520385742 0.0374800004065036774 0.0458320006728172302
-0.482407987117767334 0.0355420000851154327 0.0458320006728172302
-0.48464500904083252 0.0336049981415271759 0.0458320006728172302
-0.486883014440536499 0.0316670015454292297 0.0458320006728172302
-0.489120006561279297 0.0297289993613958359 0.0458320006728172302
-0.491358011960983276 0.0277910009026527405 0.0458320006728172302
-0.493595004081726074 0.0258540008217096329 0.0458320006728172302
-0.495833009481430054 0.0239160005003213882 0.0458320006728172302
-0.497231990098953247 0.0204419996589422226 0.0455040000379085541
-0.497231990098953247 0.0143790002912282944 0.0446249991655349731
-0.497231990098953247 0.00827299989759922028 0.0437400005757808685
-0.497231990098953247 0.00212500011548399925 0.0428490005433559418
-0.497231990098953247 -0.00406600022688508034 0.0419510006904602051
-0.497231990098953247 -0.0103000001981854439 0.0410469993948936462
-0.497231990098953247 -0.0165790002793073654 0.0401370003819465637
-0.497231990098953247 -0.0229020006954669952 0.0392209999263286591
-0.497231990098953247 -0.0292700007557868958 0.0382970012724399567
-0.497231990098953247 -0.0356829985976219177 0.0373679995536804199
-0.497231990098953247 -0.0421410016715526581 0.0364320017397403717
-0.497231990098953247 -0.0486470013856887817 0.0354890003800392151
-0.497231990098953247 -0.0551990009844303131 0.0345389991998672485
-0.497231990098953247 -0.06179799884557724 0.033581998199224472
-0.497231990098953247 -0.0684449970722198486 0.0326189994812011719
-0.497231990098953247 -0.0751409977674484253 0.0316479988396167755
-0.497231990098953247 -0.0818850025534629822 0.0306700002402067184
-0.497231990098953247 -0.0886799991130828857 0.0296849999576807022
-0.497231990098953247 -0.0955229997634887695 0.028692999854683876
-0.497231990098953247 -0.102417998015880585 0.0276939999312162399
-0.497231990098953247 -0.109362997114658356 0.0266869999468326569
-0.497231990098953247 -0.116360999643802643 0.0256730001419782639
-0.497231990098953247 -0.123410001397132874 0.0246510002762079239
-0.497231990098953247 -0.130511999130249023 0.023621000349521637
-0.497231990098953247 -0.137667998671531677 0.0225840006023645401
-0.441982001066207886 -0.439213007688522339 -0.0280639994889497757
-0.446832001209259033 -0.437101006507873535 -0.0271489992737770081
-0.450787007808685303 -0.437056005001068115 -0.026645999401807785
-0.45426100492477417 -0.438127994537353516 -0.0263650007545948029
-0.468764990568161011 -0.412786990404129028 -0.0208710003644227982
-0.474756002426147461 -0.407617002725601196 -0.019370000809431076
-0.478917986154556274 -0.406787008047103882 -0.0187270008027553558
-0.482513993978500366 -0.407299011945724487 -0.0183489993214607239
-0.485727012157440186 -0.408726006746292114 -0.0181530006229877472
-0.488472014665603638 -0.411292999982833862 -0.0181799996644258499
-0.490635991096496582 -0.415300995111465454 -0.0184899996966123581
0.454418003559112549 0.466715008020401001 -0.00652199983596801758
0.449315011501312256 0.465467005968093872 -0.00606699986383318901
0.446182012557983398 0.463306009769439697 -0.00598700018599629402
0.444146990776062012 0.46062999963760376 -0.00611800001934170723
0.442916005849838257 0.45757099986076355 -0.00640500010922551155
0.442582994699478149 0.454077988862991333 -0.00686499988660216331
0.443500012159347534 0.449977010488510132 -0.00756900012493133545
0.47474399209022522 0.431304991245269775 -0.0141390003263950348
0.47327500581741333 0.428250014781951904 -0.0143950004130601883
0.22931399941444397 0.472755014896392822 0.0223529990762472153
0.222877994179725647 0.472755014896392822 0.0231539998203516006
0.216479003429412842 0.472755014896392822 0.0239499993622303009
0.210116997361183167 0.472755014896392822 0.0247409995645284653
0.203791007399559021 0.472755014896392822 0.0255280006676912308
0.197502002120018005 0.472755014896392822 0.0263110008090734482
0.191247999668121338 0.472755014896392822 0.0270889997482299805
0.185029998421669006 0.472755014896392822 0.0278629995882511139
0.178847000002861023 0.472755014896392822 0.0286320000886917114
0.172699004411697388 0.472755014896392822 0.0293969996273517609
0.166585996747016907 0.472755014896392822 0.0301580000668764114
0.160506993532180786 0.472755014896392822 0.0309139993041753769
0.154461994767189026 0.472755014896392822 0.0316659994423389435
0.148451000452041626 0.472755014896392822 0.0324140004813671112
0.142472997307777405 0.472755014896392822 0.0331580005586147308
0.136528000235557556 0.472755014896392822 0.0338970012962818146
0.130616992712020874 0.472755014896392822 0.034632999449968338
0.124738000333309174 0.472755014896392822 0.0353639982640743256
0.118891000747680664 0.472755014896392822 0.0360919982194900513
0.11307699978351593 0.472755014896392822 0.0368149988353252411
0.107294999063014984 0.472755014896392822 0.0375339984893798828
0.101544000208377838 0.472755014896392822 0.0382499992847442627
0.09582500159740448 0.472755014896392822 0.0389619991183280945
0.0901359990239143372 0.472755014896392822 0.0396689996123313904
0.0844779983162879944 0.472755014896392822 0.0403730012476444244
0.0788519978523254395 0.472755014896392822 0.0410729981958866119
0.073255002498626709 0.472755014896392822 0.0417700000107288361
0.0676880031824111938 0.472755014896392822 0.0424619987607002258
0.0621519982814788818 0.472755014896392822 0.0431509986519813538
0.0566440001130104065 0.472755014896392822 0.0438360013067722321
0.0511670000851154327 0.472755014896392822 0.04451800137758255
0.0457179993391036987 0.472755014896392822 0.0451960004866123199
0.0404790006577968597 0.472642987966537476 0.0458320006728172302
0.0382210016250610352 0.470688998699188232 0.0458320006728172302
0.0359640009701251984 0.468733996152877808 0.0458320006728172302
0.0337070003151893616 0.466780006885528564 0.0458320006728172302
0.0314499996602535248 0.46482500433921814 0.0458320006728172302
0.0291930008679628372 0.462870001792907715 0.0458320006728172302
0.0269360002130270004 0.460916012525558472 0.0458320006728172302
0.0246789995580911636 0.458961009979248047 0.0458320006728172302
0.0224229991436004639 0.457006007432937622 0.0458320006728172302
0.0201650001108646393 0.455051988363265991 0.0458320006728172302
0.0179089996963739395 0.453096985816955566 0.0458320006728172302
0.0156510006636381149 0.451142996549606323 0.0458320006728172302
0.0133940000087022781 0.449187994003295898 0.0458320006728172302
0.011137000285089016 0.447232991456985474 0.0458320006728172302
0.00887999963015317917 0.44527900218963623 0.0458320006728172302
0.00662400014698505402 0.443323999643325806 0.0458320006728172302
0.00436600018292665482 0.441370010375976562 0.0458320006728172302
0.0021100000012665987 0.439415007829666138 0.0458320006728172302
-0.000148000006447546184 0.437460988759994507 0.0458320006728172302
-0.00240499991923570633 0.435505986213684082 0.0458320006728172302
-0.00466099986806511879 0.433551013469696045 0.0458320006728172302
-0.00691800005733966827 0.43159601092338562 0.0458320006728172302
-0.00917600002139806747 0.429641991853713989 0.0458320006728172302
-0.0114320004358887672 0.427686989307403564 0.0458320006728172302
-0.0136900003999471664 0.425733000040054321 0.0458320006728172302
-0.015946999192237854 0.423777997493743896 0.0458320006728172302
-0.0182039998471736908 0.421824008226394653 0.0458320006728172302
-0.0204600002616643906 0.419869005680084229 0.0458320006728172302
-0.0227179992944002151 0.417914003133773804 0.0458320006728172302
-0.0249749999493360519 0.415960013866424561 0.0458320006728172302
-0.0272320006042718887 0.414005011320114136 0.0458320006728172302
-0.0294889993965625763 0.412050992250442505 0.0458320006728172302
-0.0317460000514984131 0.41009598970413208 0.0458320006728172302
-0.0340030007064342499 0.408140987157821655 0.0458320006728172302
-0.0362600013613700867 0.406186997890472412 0.0458320006728172302
-0.038516998291015625 0.404231995344161987 0.0458320006728172302
-0.0407739989459514618 0.402278006076812744 0.0458320006728172302
-0.0430309996008872986 0.400323003530502319 0.0458320006728172302
-0.0452880002558231354 0.398368000984191895 0.0458320006728172302
-0.0475450009107589722 0.396414011716842651 0.0458320006728172302
-0.049802001565694809 0.394459009170532227 0.0458320006728172302
-0.0520589984953403473 0.392504006624221802 0.0458320006728172302
-0.0543150007724761963 0.390549987554550171 0.0458320006728172302
-0.0565729998052120209 0.388595998287200928 0.0458320006728172302
-0.0588300004601478577 0.386640995740890503 0.0458320006728172302
-0.0610870011150836945 0.384685993194580078 0.0458320006728172302
-0.0633440017700195312 0.382730990648269653 0.0458320006728172302
-0.0656009986996650696 0.38077700138092041 0.0458320006728172302
-0.0678580030798912048 0.378821998834609985 0.0458320006728172302
-0.0701150000095367432 0.376868009567260742 0.0458320006728172302
-0.0723719969391822815 0.374913007020950317 0.0458320006728172302
-0.0746290013194084167 0.372958004474639893 0.0458320006728172302
-0.0768859982490539551 0.371003985404968262 0.0458320006728172302
-0.0791430026292800903 0.369049012660980225 0.0458320006728172302
-0.0813990011811256409 0.367094993591308594 0.0458320006728172302
-0.0836559981107711792 0.365139991044998169 0.0458320006728172302
-0.0859140008687973022 0.363184988498687744 0.0458320006728172302
-0.0881709977984428406 0.361230999231338501 0.0458320006728172302
-0.0904280021786689758 0.359275996685028076 0.0458320006728172302
-0.0926849991083145142 0.357322007417678833 0.0458320006728172302
-0.0949420034885406494 0.355367004871368408 0.0458320006728172302
-0.0971990004181861877 0.353412985801696777 0.0458320006728172302
-0.0994559973478317261 0.35145801305770874 0.0458320006728172302
-0.101713001728057861 0.349503010511398315 0.0458320006728172302
